-132.695 11.7365 1791.62
-133.174 11.7365 1791.62
-133.493 11.7015 1786.27
-133.97 11.7015 1786.27
-134.448 11.7015 1786.27
-134.925 11.7015 1786.27
-135.403 11.7015 1786.27
-135.881 11.7015 1786.27
-136.358 11.7015 1786.27
-136.836 11.7015 1786.27
-137.143 11.6667 1780.95
-137.619 11.6667 1780.95
-138.095 11.6667 1780.95
-138.571 11.6667 1780.95
-138.872 11.632 1775.67
-139.347 11.632 1775.67
-139.822 11.632 1775.67
-140.297 11.632 1775.67
-140.772 11.632 1775.67
-141.246 11.632 1775.67
-141.721 11.632 1775.67
-142.196 11.632 1775.67
-142.485 11.5976 1770.41
-142.959 11.5976 1770.41
-143.432 11.5976 1770.41
-143.905 11.5976 1770.41
-144.379 11.5976 1770.41
-144.852 11.5976 1770.41
-145.133 11.5634 1765.19
-145.605 11.5634 1765.19
-146.077 11.5634 1765.19
-146.549 11.5634 1765.19
-147.021 11.5634 1765.19
-147.493 11.5634 1765.19
-148.368 11.632 1775.67
-148.639 11.5976 1770.41
-149.731 11.7015 1786.27
-151.057 11.8429 1807.85
-151.541 11.8429 1807.85
-152.683 11.9512 1824.39
-154.303 12.1362 1852.63
-155.5 12.25 1870
-155.062 12.0988 1846.91
-156.74 12.2884 1875.86
-156.522 12.1739 1858.39
-156.78 12.1362 1852.63
-157.516 12.1739 1858.39
-157.292 12.0615 1841.23
-157.546 12.0245 1835.58
-157.325 11.9149 1818.84
-157.576 11.8788 1813.33
-158.061 11.8788 1813.33
-158.545 11.8788 1813.33
-158.792 11.8429 1807.85
-159.275 11.8429 1807.85
-159.758 11.8429 1807.85
-160.242 11.8429 1807.85
-160.725 11.8429 1807.85
-161.208 11.8429 1807.85
-161.692 11.8429 1807.85
-162.175 11.8429 1807.85
-162.659 11.8429 1807.85
-163.142 11.8429 1807.85
-163.625 11.8429 1807.85
-164.109 11.8429 1807.85
-164.592 11.8429 1807.85
-165.076 11.8429 1807.85
-165.559 11.8429 1807.85
-166.042 11.8429 1807.85
-166.526 11.8429 1807.85
-167.273 11.8788 1813.33
-167.758 11.8788 1813.33
-168.242 11.8788 1813.33
-168.727 11.8788 1813.33
-169.212 11.8788 1813.33
-169.697 11.8788 1813.33
-170.182 11.8788 1813.33
-170.667 11.8788 1813.33
-171.152 11.8788 1813.33
-171.636 11.8788 1813.33
-172.121 11.8788 1813.33
-172.606 11.8788 1813.33
-173.091 11.8788 1813.33
-173.576 11.8788 1813.33
-174.061 11.8788 1813.33
-174.545 11.8788 1813.33
-175.319 11.9149 1818.84
-175.515 11.8788 1813.33
-176.292 11.9149 1818.84
-176.778 11.9149 1818.84
-177.264 11.9149 1818.84
-177.751 11.9149 1818.84
-178.237 11.9149 1818.84
-178.723 11.9149 1818.84
-179.21 11.9149 1818.84
-179.696 11.9149 1818.84
-180.182 11.9149 1818.84
-180.669 11.9149 1818.84
-181.155 11.9149 1818.84
-181.641 11.9149 1818.84
20.8092 11.7919 1729.48
20.3468 11.7919 1729.48
19.8844 11.7919 1729.48
19.422 11.7919 1729.48
19.2464 11.8261 1734.49
19.0698 11.8605 1739.53
18.8921 11.895 1744.61
18.4257 11.895 1744.61
17.9592 11.895 1744.61
17.4927 11.895 1744.61
17.0262 11.895 1744.61
16.8421 11.9298 1749.71
16.3743 11.9298 1749.71
15.9064 11.9298 1749.71
15.4386 11.9298 1749.71
15.2493 11.9648 1754.84
14.7801 11.9648 1754.84
14.5882 12 1760
14.1176 12 1760
13.9233 12.0354 1765.19
13.1765 12 1760
12.9794 12.0354 1765.19
12.5074 12.0354 1765.19
12.3077 12.071 1770.41
11.8343 12.071 1770.41
11.632 12.1068 1775.67
11.1573 12.1068 1775.67
10.6825 12.1068 1775.67
10.2077 12.1068 1775.67
9.73294 12.1068 1775.67
9.25816 12.1068 1775.67
9.04762 12.1429 1780.95
8.57143 12.1429 1780.95
8.09524 12.1429 1780.95
7.61905 12.1429 1780.95
7.40299 12.1791 1786.27
6.92537 12.1791 1786.27
6.70659 12.2156 1791.62
6.22754 12.2156 1791.62
5.7485 12.2156 1791.62
5.52553 12.2523 1797
5.04505 12.2523 1797
4.81928 12.2892 1802.41
4.33735 12.2892 1802.41
3.85542 12.2892 1802.41
3.37349 12.2892 1802.41
2.89157 12.2892 1802.41
2.65861 12.3263 1807.85
2.17523 12.3263 1807.85
1.69184 12.3263 1807.85
1.20846 12.3263 1807.85
0.725076 12.3263 1807.85
0.484848 12.3636 1813.33
-0.241692 12.3263 1807.85
-0.484848 12.3636 1813.33
-0.969697 12.3636 1813.33
-1.45455 12.3636 1813.33
-1.93939 12.3636 1813.33
-2.42424 12.3636 1813.33
-2.90909 12.3636 1813.33
-3.39394 12.3636 1813.33
-3.87879 12.3636 1813.33
-4.36364 12.3636 1813.33
-4.84848 12.3636 1813.33
-5.33333 12.3636 1813.33
-5.81818 12.3636 1813.33
-6.30303 12.3636 1813.33
-6.78788 12.3636 1813.33
-7.05167 12.4012 1818.84
-7.53799 12.4012 1818.84
-8.02432 12.4012 1818.84
-8.51064 12.4012 1818.84
-8.99696 12.4012 1818.84
-9.48328 12.4012 1818.84
-9.9696 12.4012 1818.84
-10.2439 12.439 1824.39
-10.7317 12.439 1824.39
-11.2195 12.439 1824.39
-11.4985 12.4771 1829.97
-11.9878 12.4771 1829.97
-12.4771 12.4771 1829.97
-12.7607 12.5153 1835.58
-13.2515 12.5153 1835.58
-13.7423 12.5153 1835.58
-14.0308 12.5538 1841.23
-14.5231 12.5538 1841.23
-14.8148 12.5926 1846.91
-15.3086 12.5926 1846.91
-15.4037 12.6708 1858.39
-15.9006 12.6708 1858.39
-16 12.75 1870
-16.1006 12.8302 1881.76
-16.2025 12.9114 1893.67
-16.3057 12.9936 1905.73
-16.2058 13.119 1924.12
-16.1039 13.2468 1942.86
-15.7895 13.4211 1968.42
-15.2508 13.6455 2001.34
-15.3535 13.7374 2014.81
-15.2381 13.8776 2035.37
-14.8966 14.069 2063.45
-15 14.1667 2077.78
-15.5556 14.1667 2077.78
-14.9823 14.417 2114.49
-15.3191 14.4681 2121.99
-15.6584 14.5196 2129.54
-16 14.5714 2137.14
-16.5714 14.5714 2137.14
-17.1429 14.5714 2137.14
-17.7143 14.5714 2137.14
-18.0645 14.6237 2144.8
-18.638 14.6237 2144.8
-19.2115 14.6237 2144.8
-19.7849 14.6237 2144.8
-20.3584 14.6237 2144.8
-20.9319 14.6237 2144.8
-21.5054 14.6237 2144.8
-21.8705 14.6763 2152.52
-22.446 14.6763 2152.52
-23.0216 14.6763 2152.52
-23.5971 14.6763 2152.52
-24.1727 14.6763 2152.52
-24.7482 14.6763 2152.52
-25.3237 14.6763 2152.52
-25.8993 14.6763 2152.52
-26.4748 14.6763 2152.52
-27.0504 14.6763 2152.52
-27.6259 14.6763 2152.52
-28.0144 14.7292 2160.29
-28.5921 14.7292 2160.29
-29.1697 14.7292 2160.29
-29.7473 14.7292 2160.29
-30.3249 14.7292 2160.29
-30.9025 14.7292 2160.29
-31.4801 14.7292 2160.29
-32.0578 14.7292 2160.29
-32.6354 14.7292 2160.29
-33.0435 14.7826 2168.12
-33.6232 14.7826 2168.12
-34.2029 14.7826 2168.12
-34.7826 14.7826 2168.12
-35.3623 14.7826 2168.12
-35.942 14.7826 2168.12
-36.5217 14.7826 2168.12
-36.9455 14.8364 2176
-37.5273 14.8364 2176
-38.1091 14.8364 2176
-38.6909 14.8364 2176
-39.2727 14.8364 2176
-39.8545 14.8364 2176
-40.4364 14.8364 2176
-41.0182 14.8364 2176
-41.6 14.8364 2176
-42.0438 14.8905 2183.94
-42.6277 14.8905 2183.94
-43.2117 14.8905 2183.94
-43.7956 14.8905 2183.94
-44.3796 14.8905 2183.94
-44.9635 14.8905 2183.94
-45.5474 14.8905 2183.94
-46.1314 14.8905 2183.94
-46.7153 14.8905 2183.94
-47.1795 14.9451 2191.94
-47.7656 14.9451 2191.94
-48.3516 14.9451 2191.94
-48.9377 14.9451 2191.94
-49.5238 14.9451 2191.94
-50.1099 14.9451 2191.94
-50.696 14.9451 2191.94
-51.2821 14.9451 2191.94
-51.7647 15 2200
-52.3529 15 2200
-52.9412 15 2200
-53.5294 15 2200
-54.1176 15 2200
-54.7059 15 2200
-55.2941 15 2200
-55.8824 15 2200
-56.4706 15 2200
-56.9742 15.0554 2208.12
-57.5646 15.0554 2208.12
-58.155 15.0554 2208.12
-58.7454 15.0554 2208.12
-59.3358 15.0554 2208.12
-59.9262 15.0554 2208.12
-60.5166 15.0554 2208.12
-61.037 15.1111 2216.3
-61.6296 15.1111 2216.3
-62.2222 15.1111 2216.3
-62.8148 15.1111 2216.3
-63.4074 15.1111 2216.3
-64 15.1111 2216.3
-64.6494 15.0554 2208.12
-65.2399 15.0554 2208.12
-65.8303 15.0554 2208.12
-66.4706 15 2200
-67.0588 15 2200
-67.8261 14.7826 2168.12
-68.4058 14.7826 2168.12
-68.8235 15 2200
-69.5652 14.7826 2168.12
-70 15 2200
-70.5882 15 2200
-71.2088 14.9451 2191.94
-71.7647 15 2200
-72.3247 15.0554 2208.12
-72.9151 15.0554 2208.12
-73.5055 15.0554 2208.12
-74.0959 15.0554 2208.12
-74.6468 15.1673 2224.54
-75.2593 15.1111 2216.3
-75.8364 15.1673 2224.54
-76.4179 15.2239 2232.84
-77.2509 14.0206 2056.36
-77.6642 14.8905 2183.94
-78.2545 14.8364 2176
-78.8364 14.8364 2176
-79.4182 14.8364 2176
-80 14.8364 2176
-80.5818 14.8364 2176
-81.1636 14.8364 2176
-81.7391 14.7826 2168.12
-82.3273 14.8364 2176
-82.9091 14.8364 2176
-83.4909 14.8364 2176
-84.0727 14.8364 2176
-84.6715 14.8905 2183.94
-85.2555 14.8905 2183.94
-85.8394 14.8905 2183.94
-86.4234 14.8905 2183.94
-87.0073 14.8905 2183.94
-87.5912 14.8905 2183.94
-88.1752 14.8905 2183.94
-88.7591 14.8905 2183.94
-89.4465 15.0554 2208.12
-89.8909 14.8364 2176
-90.4348 14.7826 2168.12
-90.9353 14.6763 2152.52
-91.3879 14.5196 2129.54
-91.8728 14.417 2114.49
-92.2222 14.1667 2077.78
-92.6027 13.9726 2049.32
-93.1058 13.9249 2042.32
-93.245 13.5099 1981.46
-93.5948 13.3333 1955.56
-93.9355 13.1613 1930.32
-94.2675 12.9936 1905.73
-94.6372 12.8707 1887.7
-95.047 12.79 1875.86
-95.5 12.75 1870
-95.9006 12.6708 1858.39
-96.3975 12.6708 1858.39
-96.8421 12.6316 1852.63
-97.3375 12.6316 1852.63
-97.8328 12.6316 1852.63
-98.3282 12.6316 1852.63
-98.8235 12.6316 1852.63
-99.3189 12.6316 1852.63
-99.7531 12.5926 1846.91
-100.247 12.5926 1846.91
-100.741 12.5926 1846.91
-101.235 12.5926 1846.91
-101.728 12.5926 1846.91
-102.222 12.5926 1846.91
-102.646 12.5538 1841.23
-103.138 12.5538 1841.23
-103.631 12.5538 1841.23
-104.123 12.5538 1841.23
-104.615 12.5538 1841.23
-105.108 12.5538 1841.23
-105.6 12.5538 1841.23
-106.012 12.5153 1835.58
-106.503 12.5153 1835.58
-106.994 12.5153 1835.58
-107.485 12.5153 1835.58
-107.975 12.5153 1835.58
-108.466 12.5153 1835.58
-108.957 12.5153 1835.58
-109.358 12.4771 1829.97
-109.847 12.4771 1829.97
-110.336 12.4771 1829.97
-110.826 12.4771 1829.97
-111.315 12.4771 1829.97
-111.804 12.4771 1829.97
-112.195 12.439 1824.39
-112.683 12.439 1824.39
-113.171 12.439 1824.39
-113.659 12.439 1824.39
-114.146 12.439 1824.39
-114.634 12.439 1824.39
-115.122 12.439 1824.39
-115.502 12.4012 1818.84
-115.988 12.4012 1818.84
-116.474 12.4012 1818.84
-116.96 12.4012 1818.84
-117.447 12.4012 1818.84
-117.933 12.4012 1818.84
-118.419 12.4012 1818.84
-118.788 12.3636 1813.33
-119.273 12.3636 1813.33
-119.758 12.3636 1813.33
-120.242 12.3636 1813.33
-120.727 12.3636 1813.33
-121.212 12.3636 1813.33
-121.697 12.3636 1813.33
-122.054 12.3263 1807.85
-122.538 12.3263 1807.85
-123.021 12.3263 1807.85
-123.505 12.3263 1807.85
-123.988 12.3263 1807.85
-124.471 12.3263 1807.85
-124.819 12.2892 1802.41
-125.301 12.2892 1802.41
-125.783 12.2892 1802.41
-126.265 12.2892 1802.41
-126.747 12.2892 1802.41
-127.229 12.2892 1802.41
-127.711 12.2892 1802.41
-128.048 12.2523 1797
-128.529 12.2523 1797
-129.009 12.2523 1797
-129.489 12.2523 1797
-129.97 12.2523 1797
-130.45 12.2523 1797
-130.778 12.2156 1791.62
-131.257 12.2156 1791.62
-131.737 12.2156 1791.62
-132.216 12.2156 1791.62
-132.695 12.2156 1791.62
-133.174 12.2156 1791.62
-133.653 12.2156 1791.62
-133.97 12.1791 1786.27
-134.448 12.1791 1786.27
-134.925 12.1791 1786.27
-135.403 12.1791 1786.27
-135.881 12.1791 1786.27
-136.358 12.1791 1786.27
-136.836 12.1791 1786.27
-137.313 12.1791 1786.27
-137.619 12.1429 1780.95
-138.095 12.1429 1780.95
-138.571 12.1429 1780.95
-138.872 12.1068 1775.67
-139.347 12.1068 1775.67
-139.822 12.1068 1775.67
-140.297 12.1068 1775.67
-140.772 12.1068 1775.67
-141.246 12.1068 1775.67
-141.721 12.1068 1775.67
-142.196 12.1068 1775.67
-142.671 12.1068 1775.67
-142.959 12.071 1770.41
-143.432 12.071 1770.41
-143.905 12.071 1770.41
-144.379 12.071 1770.41
-144.852 12.071 1770.41
-145.133 12.0354 1765.19
-145.605 12.0354 1765.19
-146.077 12.0354 1765.19
-146.549 12.0354 1765.19
-147.219 12.071 1770.41
-147.493 12.0354 1765.19
-148.368 12.1068 1775.67
-149.254 12.1791 1786.27
-150.361 12.2892 1802.41
-151.273 12.3636 1813.33
-152.638 12.5153 1835.58
-153.58 12.5926 1846.91
-155.71 12.8707 1887.7
-155.975 12.8302 1881.76
-156.478 12.8302 1881.76
-159.481 13.2468 1942.86
-160.261 13.2899 1949.19
-157.5 12.75 1870
-158.245 12.79 1875.86
-158.012 12.6708 1858.39
-158.025 12.5926 1846.91
-157.561 12.439 1824.39
-157.812 12.4012 1818.84
-158.061 12.3636 1813.33
-158.308 12.3263 1807.85
-158.792 12.3263 1807.85
-159.275 12.3263 1807.85
-159.758 12.3263 1807.85
-160.242 12.3263 1807.85
-160.725 12.3263 1807.85
-161.208 12.3263 1807.85
-161.692 12.3263 1807.85
-162.175 12.3263 1807.85
-162.659 12.3263 1807.85
-163.142 12.3263 1807.85
-163.625 12.3263 1807.85
-164.109 12.3263 1807.85
-164.848 12.3636 1813.33
-165.076 12.3263 1807.85
-165.559 12.3263 1807.85
-166.303 12.3636 1813.33
-166.788 12.3636 1813.33
-167.273 12.3636 1813.33
-167.758 12.3636 1813.33
-168.242 12.3636 1813.33
-168.727 12.3636 1813.33
-169.212 12.3636 1813.33
-169.697 12.3636 1813.33
-170.182 12.3636 1813.33
-170.667 12.3636 1813.33
-171.152 12.3636 1813.33
-171.636 12.3636 1813.33
-172.121 12.3636 1813.33
-172.606 12.3636 1813.33
-173.091 12.3636 1813.33
-173.576 12.3636 1813.33
-174.347 12.4012 1818.84
-174.833 12.4012 1818.84
-175.319 12.4012 1818.84
-175.805 12.4012 1818.84
-176.292 12.4012 1818.84
-176.778 12.4012 1818.84
-177.264 12.4012 1818.84
-177.751 12.4012 1818.84
-178.237 12.4012 1818.84
-178.723 12.4012 1818.84
-179.21 12.4012 1818.84
-179.696 12.4012 1818.84
-180.182 12.4012 1818.84
-180.669 12.4012 1818.84
-181.155 12.4012 1818.84
-181.641 12.4012 1818.84
20.8092 12.2543 1729.48
20.3468 12.2543 1729.48
19.8844 12.2543 1729.48
19.422 12.2543 1729.48
19.2464 12.2899 1734.49
19.0698 12.3256 1739.53
18.8921 12.3615 1744.61
18.4257 12.3615 1744.61
17.9592 12.3615 1744.61
17.4927 12.3615 1744.61
17.0262 12.3615 1744.61
16.8421 12.3977 1749.71
16.3743 12.3977 1749.71
15.9064 12.3977 1749.71
15.4386 12.3977 1749.71
15.2493 12.434 1754.84
14.7801 12.434 1754.84
14.5882 12.4706 1760
13.8416 12.434 1754.84
13.9233 12.5074 1765.19
13.1765 12.4706 1760
12.9794 12.5074 1765.19
12.5074 12.5074 1765.19
12.0354 12.5074 1765.19
11.8343 12.5444 1770.41
11.632 12.5816 1775.67
11.1573 12.5816 1775.67
10.6825 12.5816 1775.67
10.2077 12.5816 1775.67
9.73294 12.5816 1775.67
9.25816 12.5816 1775.67
9.04762 12.619 1780.95
8.57143 12.619 1780.95
8.09524 12.619 1780.95
7.8806 12.6567 1786.27
7.40299 12.6567 1786.27
7.18563 12.6946 1791.62
6.44776 12.6567 1786.27
6.22754 12.6946 1791.62
5.7485 12.6946 1791.62
5.52553 12.7327 1797
5.04505 12.7327 1797
4.56456 12.7327 1797
4.08408 12.7327 1797
3.85542 12.7711 1802.41
3.37349 12.7711 1802.41
2.89157 12.7711 1802.41
2.65861 12.8097 1807.85
2.17523 12.8097 1807.85
1.69184 12.8097 1807.85
1.20846 12.8097 1807.85
0.725076 12.8097 1807.85
0.484848 12.8485 1813.33
-0.241692 12.8097 1807.85
-0.484848 12.8485 1813.33
-0.969697 12.8485 1813.33
-1.45455 12.8485 1813.33
-1.93939 12.8485 1813.33
-2.42424 12.8485 1813.33
-2.90909 12.8485 1813.33
-3.39394 12.8485 1813.33
-3.87879 12.8485 1813.33
-4.36364 12.8485 1813.33
-4.84848 12.8485 1813.33
-5.33333 12.8485 1813.33
-5.81818 12.8485 1813.33
-6.30303 12.8485 1813.33
-6.78788 12.8485 1813.33
-7.05167 12.8875 1818.84
-7.53799 12.8875 1818.84
-8.02432 12.8875 1818.84
-8.51064 12.8875 1818.84
-8.99696 12.8875 1818.84
-9.48328 12.8875 1818.84
-9.7561 12.9268 1824.39
-10.2439 12.9268 1824.39
-10.7317 12.9268 1824.39
-11.2195 12.9268 1824.39
-11.7073 12.9268 1824.39
-11.9878 12.9664 1829.97
-12.4771 12.9664 1829.97
-12.9664 12.9664 1829.97
-13.2515 13.0061 1835.58
-13.7423 13.0061 1835.58
-14.0308 13.0462 1841.23
-14.5231 13.0462 1841.23
-14.8148 13.0864 1846.91
-15.3086 13.0864 1846.91
-15.6037 13.1269 1852.63
-15.9006 13.1677 1858.39
-16.1994 13.2087 1864.17
-16.3009 13.2915 1875.86
-16.6038 13.3333 1881.76
-16.5079 13.4603 1899.68
-16.6134 13.5463 1911.82
-16.5161 13.6774 1930.32
-16.2092 13.8562 1955.56
-16.1056 13.9934 1974.92
-15.786 14.1806 2001.34
-15.4576 14.3729 2028.47
-15.3425 14.5205 2049.32
-15.2249 14.6713 2070.59
-15.1049 14.8252 2092.31
-15.2113 14.9296 2107.04
-15.5477 14.9823 2114.49
-15.6584 15.089 2129.54
-16.2278 15.089 2129.54
-16.5714 15.1429 2137.14
-17.1429 15.1429 2137.14
-17.7143 15.1429 2137.14
-18.2857 15.1429 2137.14
-18.638 15.1971 2144.8
-19.2115 15.1971 2144.8
-19.7849 15.1971 2144.8
-20.3584 15.1971 2144.8
-20.9319 15.1971 2144.8
-21.5054 15.1971 2144.8
-22.0789 15.1971 2144.8
-22.446 15.2518 2152.52
-23.0216 15.2518 2152.52
-23.5971 15.2518 2152.52
-24.1727 15.2518 2152.52
-24.7482 15.2518 2152.52
-25.3237 15.2518 2152.52
-25.8993 15.2518 2152.52
-26.4748 15.2518 2152.52
-27.0504 15.2518 2152.52
-27.6259 15.2518 2152.52
-28.2014 15.2518 2152.52
-28.5921 15.3069 2160.29
-29.1697 15.3069 2160.29
-29.7473 15.3069 2160.29
-30.3249 15.3069 2160.29
-30.9025 15.3069 2160.29
-31.4801 15.3069 2160.29
-32.0578 15.3069 2160.29
-32.6354 15.3069 2160.29
-33.0435 15.3623 2168.12
-33.6232 15.3623 2168.12
-34.2029 15.3623 2168.12
-34.7826 15.3623 2168.12
-35.3623 15.3623 2168.12
-35.942 15.3623 2168.12
-36.5217 15.3623 2168.12
-37.1014 15.3623 2168.12
-37.5273 15.4182 2176
-38.2609 15.3623 2168.12
-38.6909 15.4182 2176
-39.2727 15.4182 2176
-39.8545 15.4182 2176
-40.4364 15.4182 2176
-41.0182 15.4182 2176
-41.6 15.4182 2176
-42.1818 15.4182 2176
-42.6277 15.4745 2183.94
-43.2117 15.4745 2183.94
-43.7956 15.4745 2183.94
-44.3796 15.4745 2183.94
-44.9635 15.4745 2183.94
-45.5474 15.4745 2183.94
-46.1314 15.4745 2183.94
-46.7153 15.4745 2183.94
-47.1795 15.5311 2191.94
-47.7656 15.5311 2191.94
-48.3516 15.5311 2191.94
-48.9377 15.5311 2191.94
-49.5238 15.5311 2191.94
-50.1099 15.5311 2191.94
-50.696 15.5311 2191.94
-51.2821 15.5311 2191.94
-51.7647 15.5882 2200
-52.3529 15.5882 2200
-52.9412 15.5882 2200
-53.5294 15.5882 2200
-54.1176 15.5882 2200
-54.7059 15.5882 2200
-55.2941 15.5882 2200
-55.8824 15.5882 2200
-56.4706 15.5882 2200
-56.9742 15.6458 2208.12
-57.5646 15.6458 2208.12
-58.155 15.6458 2208.12
-58.7454 15.6458 2208.12
-59.3358 15.6458 2208.12
-59.9262 15.6458 2208.12
-60.5166 15.6458 2208.12
-61.107 15.6458 2208.12
-61.6296 15.7037 2216.3
-62.2222 15.7037 2216.3
-62.8148 15.7037 2216.3
-63.4074 15.7037 2216.3
-64 15.7037 2216.3
-64.5926 15.7037 2216.3
-65.1852 15.7037 2216.3
-65.7778 15.7037 2216.3
-66.4706 15.5882 2200
-67.0111 15.6458 2208.12
-67.7372 15.4745 2183.94
-68.3212 15.4745 2183.94
-68.7823 15.6458 2208.12
-69.3333 15.7037 2216.3
-70.0366 15.5311 2191.94
-70.5882 15.5882 2200
-71.1111 15.7037 2216.3
-71.7037 15.7037 2216.3
-72.3247 15.6458 2208.12
-72.8889 15.7037 2216.3
-73.4328 15.8209 2232.84
-74.052 15.7621 2224.54
-74.6468 15.7621 2224.54
-75.2416 15.7621 2224.54
-75.8209 15.8209 2232.84
-76.4179 15.8209 2232.84
-77.2789 14.4218 2035.37
-77.6296 15.7037 2216.3
-78.2353 15.5882 2200
-78.8192 15.6458 2208.12
-79.4096 15.6458 2208.12
-80 15.5882 2200
-80.5904 15.6458 2208.12
-81.1765 15.5882 2200
-81.7647 15.5882 2200
-82.3616 15.6458 2208.12
-82.9091 15.4182 2176
-83.5424 15.6458 2208.12
-84.1328 15.6458 2208.12
-84.7232 15.6458 2208.12
-85.3137 15.6458 2208.12
-85.8394 15.4745 2183.94
-86.4945 15.6458 2208.12
-87.0849 15.6458 2208.12
-87.619 15.5311 2191.94
-88.2657 15.6458 2208.12
-88.8561 15.6458 2208.12
-89.4465 15.6458 2208.12
-90 15.5882 2200
-90.5495 15.5311 2191.94
-91.0545 15.4182 2176
-91.5108 15.2518 2152.52
-92 15.1429 2137.14
-92.3509 14.8772 2099.65
-92.6897 14.6207 2063.45
-93.0169 14.3729 2028.47
-93.3333 14.1333 1994.67
-93.6842 13.9474 1968.42
-94.1176 13.8562 1955.56
-94.359 13.5897 1917.95
-94.6835 13.4177 1893.67
-95.047 13.2915 1875.86
-95.5 13.25 1870
-95.9006 13.1677 1858.39
-96.3975 13.1677 1858.39
-96.8421 13.1269 1852.63
-97.3375 13.1269 1852.63
-97.8328 13.1269 1852.63
-98.3282 13.1269 1852.63
-98.8235 13.1269 1852.63
-99.3189 13.1269 1852.63
-99.7531 13.0864 1846.91
-100.247 13.0864 1846.91
-100.741 13.0864 1846.91
-101.235 13.0864 1846.91
-101.728 13.0864 1846.91
-102.222 13.0864 1846.91
-102.716 13.0864 1846.91
-103.138 13.0462 1841.23
-103.631 13.0462 1841.23
-104.123 13.0462 1841.23
-104.615 13.0462 1841.23
-105.108 13.0462 1841.23
-105.6 13.0462 1841.23
-106.092 13.0462 1841.23
-106.503 13.0061 1835.58
-106.994 13.0061 1835.58
-107.485 13.0061 1835.58
-107.975 13.0061 1835.58
-108.466 13.0061 1835.58
-108.957 13.0061 1835.58
-109.358 12.9664 1829.97
-109.847 12.9664 1829.97
-110.336 12.9664 1829.97
-110.826 12.9664 1829.97
-111.315 12.9664 1829.97
-111.804 12.9664 1829.97
-112.294 12.9664 1829.97
-112.683 12.9268 1824.39
-113.171 12.9268 1824.39
-113.659 12.9268 1824.39
-114.146 12.9268 1824.39
-114.634 12.9268 1824.39
-115.122 12.9268 1824.39
-115.61 12.9268 1824.39
-115.988 12.8875 1818.84
-116.474 12.8875 1818.84
-116.96 12.8875 1818.84
-117.447 12.8875 1818.84
-117.933 12.8875 1818.84
-118.419 12.8875 1818.84
-118.906 12.8875 1818.84
-119.273 12.8485 1813.33
-119.758 12.8485 1813.33
-120.242 12.8485 1813.33
-120.727 12.8485 1813.33
-121.212 12.8485 1813.33
-121.697 12.8485 1813.33
-122.054 12.8097 1807.85
-122.538 12.8097 1807.85
-123.021 12.8097 1807.85
-123.505 12.8097 1807.85
-123.988 12.8097 1807.85
-124.471 12.8097 1807.85
-124.955 12.8097 1807.85
-125.301 12.7711 1802.41
-125.783 12.7711 1802.41
-126.265 12.7711 1802.41
-126.747 12.7711 1802.41
-127.229 12.7711 1802.41
-127.711 12.7711 1802.41
-128.048 12.7327 1797
-128.529 12.7327 1797
-129.009 12.7327 1797
-129.489 12.7327 1797
-129.97 12.7327 1797
-130.45 12.7327 1797
-130.931 12.7327 1797
-131.257 12.6946 1791.62
-131.737 12.6946 1791.62
-132.216 12.6946 1791.62
-132.695 12.6946 1791.62
-133.174 12.6946 1791.62
-133.653 12.6946 1791.62
-134.132 12.6946 1791.62
-134.448 12.6567 1786.27
-134.925 12.6567 1786.27
-135.403 12.6567 1786.27
-135.881 12.6567 1786.27
-136.358 12.6567 1786.27
-136.836 12.6567 1786.27
-137.313 12.6567 1786.27
-137.791 12.6567 1786.27
-138.269 12.6567 1786.27
-138.571 12.619 1780.95
-139.048 12.619 1780.95
-139.524 12.619 1780.95
-139.822 12.5816 1775.67
-140.297 12.5816 1775.67
-140.772 12.5816 1775.67
-141.246 12.5816 1775.67
-141.721 12.5816 1775.67
-142.196 12.5816 1775.67
-142.671 12.5816 1775.67
-142.959 12.5444 1770.41
-143.432 12.5444 1770.41
-143.905 12.5444 1770.41
-144.379 12.5444 1770.41
-144.852 12.5444 1770.41
-145.133 12.5074 1765.19
-145.799 12.5444 1770.41
-146.077 12.5074 1765.19
-146.549 12.5074 1765.19
-147.219 12.5444 1770.41
-147.692 12.5444 1770.41
-148.982 12.6946 1791.62
-149.67 12.7327 1797
-151.437 12.9664 1829.97
-152.593 13.0864 1846.91
-154.937 13.4177 1893.67
-154.734 13.2915 1875.86
-155.71 13.3754 1887.7
-155.5 13.25 1870
-157.452 13.5032 1905.73
-157.962 13.5032 1905.73
-157.729 13.3754 1887.7
-158.981 13.5032 1905.73
-158.245 13.2915 1875.86
-158.012 13.1677 1858.39
-158.754 13.2087 1864.17
-158.037 13.0061 1835.58
-158.049 12.9268 1824.39
-158.298 12.8875 1818.84
-158.545 12.8485 1813.33
-158.792 12.8097 1807.85
-159.275 12.8097 1807.85
-159.758 12.8097 1807.85
-160.242 12.8097 1807.85
-160.725 12.8097 1807.85
-161.208 12.8097 1807.85
-161.692 12.8097 1807.85
-162.175 12.8097 1807.85
-162.659 12.8097 1807.85
-163.142 12.8097 1807.85
-163.625 12.8097 1807.85
-164.109 12.8097 1807.85
-164.848 12.8485 1813.33
-165.333 12.8485 1813.33
-165.818 12.8485 1813.33
-166.303 12.8485 1813.33
-166.788 12.8485 1813.33
-167.273 12.8485 1813.33
-167.758 12.8485 1813.33
-168.242 12.8485 1813.33
-168.727 12.8485 1813.33
-169.212 12.8485 1813.33
-169.697 12.8485 1813.33
-170.182 12.8485 1813.33
-170.667 12.8485 1813.33
-171.152 12.8485 1813.33
-171.636 12.8485 1813.33
-172.121 12.8485 1813.33
-172.606 12.8485 1813.33
-173.374 12.8875 1818.84
-173.86 12.8875 1818.84
-174.347 12.8875 1818.84
-174.833 12.8875 1818.84
-175.319 12.8875 1818.84
-175.805 12.8875 1818.84
-176.292 12.8875 1818.84
-176.778 12.8875 1818.84
-177.264 12.8875 1818.84
-177.751 12.8875 1818.84
-178.237 12.8875 1818.84
-178.723 12.8875 1818.84
-179.21 12.8875 1818.84
-179.696 12.8875 1818.84
-180.182 12.8875 1818.84
-180.669 12.8875 1818.84
-181.155 12.8875 1818.84
-181.951 12.9268 1824.39
20.8092 12.7168 1729.48
20.3468 12.7168 1729.48
19.8844 12.7168 1729.48
19.422 12.7168 1729.48
19.2464 12.7536 1734.49
19.0698 12.7907 1739.53
18.6047 12.7907 1739.53
18.4257 12.828 1744.61
17.9592 12.828 1744.61
17.4927 12.828 1744.61
17.0262 12.828 1744.61
16.5598 12.828 1744.61
16.3743 12.8655 1749.71
15.9064 12.8655 1749.71
15.4386 12.8655 1749.71
15.2493 12.9032 1754.84
14.7801 12.9032 1754.84
14.3109 12.9032 1754.84
14.1176 12.9412 1760
13.9233 12.9794 1765.19
13.4513 12.9794 1765.19
13.2544 13.0178 1770.41
12.7811 13.0178 1770.41
12.3077 13.0178 1770.41
11.8343 13.0178 1770.41
11.3609 13.0178 1770.41
11.1573 13.0564 1775.67
10.6825 13.0564 1775.67
10.2077 13.0564 1775.67
9.73294 13.0564 1775.67
9.25816 13.0564 1775.67
9.04762 13.0952 1780.95
8.57143 13.0952 1780.95
8.09524 13.0952 1780.95
7.61905 13.0952 1780.95
7.14286 13.0952 1780.95
6.92537 13.1343 1786.27
6.70659 13.1737 1791.62
6.22754 13.1737 1791.62
5.7485 13.1737 1791.62
5.52553 13.2132 1797
5.04505 13.2132 1797
4.56456 13.2132 1797
4.08408 13.2132 1797
3.85542 13.253 1802.41
3.37349 13.253 1802.41
2.89157 13.253 1802.41
2.65861 13.2931 1807.85
2.17523 13.2931 1807.85
1.69184 13.2931 1807.85
1.20846 13.2931 1807.85
0.725076 13.2931 1807.85
0.241692 13.2931 1807.85
-0 13.3333 1813.33
-0.484848 13.3333 1813.33
-0.969697 13.3333 1813.33
-1.45455 13.3333 1813.33
-1.93939 13.3333 1813.33
-2.42424 13.3333 1813.33
-2.90909 13.3333 1813.33
-3.39394 13.3333 1813.33
-3.87879 13.3333 1813.33
-4.36364 13.3333 1813.33
-4.84848 13.3333 1813.33
-5.33333 13.3333 1813.33
-5.81818 13.3333 1813.33
-6.07903 13.3739 1818.84
-6.56535 13.3739 1818.84
-7.05167 13.3739 1818.84
-7.53799 13.3739 1818.84
-8.02432 13.3739 1818.84
-8.51064 13.3739 1818.84
-8.99696 13.3739 1818.84
-9.48328 13.3739 1818.84
-9.7561 13.4146 1824.39
-10.2439 13.4146 1824.39
-10.7317 13.4146 1824.39
-11.2195 13.4146 1824.39
-11.7073 13.4146 1824.39
-11.9878 13.4557 1829.97
-12.4771 13.4557 1829.97
-12.9664 13.4557 1829.97
-13.2515 13.4969 1835.58
-13.7423 13.4969 1835.58
-14.0308 13.5385 1841.23
-14.5231 13.5385 1841.23
-14.8148 13.5802 1846.91
-15.3086 13.5802 1846.91
-15.6037 13.6223 1852.63
-16.0991 13.6223 1852.63
-16.3975 13.6646 1858.39
-16.5 13.75 1870
-16.8025 13.7931 1875.86
-16.7089 13.9241 1893.67
-17.0159 13.9683 1899.68
-16.7203 14.1479 1924.12
-16.6234 14.2857 1942.86
-16.3158 14.4737 1968.42
-16 14.6667 1994.67
-15.6757 14.8649 2021.62
-15.7823 14.966 2035.37
-15.6701 15.1203 2056.36
-15.5556 15.2778 2077.78
-15.2113 15.493 2107.04
-15.5477 15.5477 2114.49
-15.8865 15.6028 2121.99
-16.2278 15.6584 2129.54
-16.5714 15.7143 2137.14
-17.1429 15.7143 2137.14
-17.7143 15.7143 2137.14
-18.2857 15.7143 2137.14
-18.638 15.7706 2144.8
-19.2115 15.7706 2144.8
-19.7849 15.7706 2144.8
-20.3584 15.7706 2144.8
-20.9319 15.7706 2144.8
-21.5054 15.7706 2144.8
-22.0789 15.7706 2144.8
-22.446 15.8273 2152.52
-23.0216 15.8273 2152.52
-23.5971 15.8273 2152.52
-24.1727 15.8273 2152.52
-24.7482 15.8273 2152.52
-25.3237 15.8273 2152.52
-25.8993 15.8273 2152.52
-26.4748 15.8273 2152.52
-27.0504 15.8273 2152.52
-27.6259 15.8273 2152.52
-28.0144 15.8845 2160.29
-28.5921 15.8845 2160.29
-29.1697 15.8845 2160.29
-29.7473 15.8845 2160.29
-30.3249 15.8845 2160.29
-30.9025 15.8845 2160.29
-31.4801 15.8845 2160.29
-32.0578 15.8845 2160.29
-32.6354 15.8845 2160.29
-33.0435 15.942 2168.12
-33.6232 15.942 2168.12
-34.2029 15.942 2168.12
-34.7826 15.942 2168.12
-35.3623 15.942 2168.12
-35.942 15.942 2168.12
-36.5217 15.942 2168.12
-37.1014 15.942 2168.12
-37.5273 16 2176
-38.1091 16 2176
-38.6909 16 2176
-39.2727 16 2176
-39.8545 16 2176
-40.4364 16 2176
-41.0182 16 2176
-41.6 16 2176
-42.1818 16 2176
-42.6277 16.0584 2183.94
-43.2117 16.0584 2183.94
-43.7956 16.0584 2183.94
-44.3796 16.0584 2183.94
-44.9635 16.0584 2183.94
-45.5474 16.0584 2183.94
-46.1314 16.0584 2183.94
-46.7153 16.0584 2183.94
-47.2993 16.0584 2183.94
-47.7656 16.1172 2191.94
-48.3516 16.1172 2191.94
-48.9377 16.1172 2191.94
-49.5238 16.1172 2191.94
-50.1099 16.1172 2191.94
-50.696 16.1172 2191.94
-51.2821 16.1172 2191.94
-51.8681 16.1172 2191.94
-52.3529 16.1765 2200
-52.9412 16.1765 2200
-53.5294 16.1765 2200
-54.1176 16.1765 2200
-54.7059 16.1765 2200
-55.2941 16.1765 2200
-55.8824 16.1765 2200
-56.3838 16.2362 2208.12
-57.0588 16.1765 2200
-57.5646 16.2362 2208.12
-58.155 16.2362 2208.12
-58.7454 16.2362 2208.12
-59.3358 16.2362 2208.12
-59.9262 16.2362 2208.12
-60.5166 16.2362 2208.12
-61.107 16.2362 2208.12
-61.6296 16.2963 2216.3
-62.2222 16.2963 2216.3
-62.8148 16.2963 2216.3
-63.4074 16.2963 2216.3
-64 16.2963 2216.3
-64.5926 16.2963 2216.3
-65.1852 16.2963 2216.3
-65.7778 16.2963 2216.3
-66.4207 16.2362 2208.12
-66.963 16.2963 2216.3
-67.6471 16.1765 2200
-68.2353 16.1765 2200
-68.7407 16.2963 2216.3
-69.4118 16.1765 2200
-69.9259 16.2963 2216.3
-70.5185 16.2963 2216.3
-71.1111 16.2963 2216.3
-71.6729 16.3569 2224.54
-72.2677 16.3569 2224.54
-72.8625 16.3569 2224.54
-73.4572 16.3569 2224.54
-74.052 16.3569 2224.54
-74.6269 16.4179 2232.84
-75.2239 16.4179 2232.84
-75.8364 16.3569 2224.54
-76.4179 16.4179 2232.84
-77.048 16.2362 2208.12
-77.6296 16.2963 2216.3
-78.2156 16.3569 2224.54
-78.8104 16.3569 2224.54
-79.4052 16.3569 2224.54
-80 16.2362 2208.12
-80.5948 16.3569 2224.54
-81.1896 16.3569 2224.54
-81.791 16.4179 2232.84
-82.3881 16.4179 2232.84
-82.974 16.3569 2224.54
-83.5688 16.3569 2224.54
-84.1791 16.4179 2232.84
-84.7761 16.4179 2232.84
-85.3731 16.4179 2232.84
-85.948 16.3569 2224.54
-86.5428 16.3569 2224.54
-87.1642 16.4179 2232.84
-87.7323 16.3569 2224.54
-88.4528 16.6038 2258.11
-88.9552 16.4179 2232.84
-89.5522 16.4179 2232.84
-90.0741 16.2963 2216.3
-90.5882 16.1765 2200
-91.1765 16.1765 2200
-91.6788 16.0584 2183.94
-92.0863 15.8273 2152.52
-92.4823 15.6028 2121.99
-92.9123 15.4386 2099.65
-93.2872 15.2249 2070.59
-93.5135 14.8649 2021.62
-93.6842 14.4737 1968.42
-94.026 14.2857 1942.86
-94.359 14.1026 1917.95
-94.6835 13.9241 1893.67
-95.142 13.8801 1887.7
-95.5 13.75 1870
-95.9006 13.6646 1858.39
-96.3975 13.6646 1858.39
-96.8944 13.6646 1858.39
-97.3375 13.6223 1852.63
-97.8328 13.6223 1852.63
-98.3282 13.6223 1852.63
-98.8235 13.6223 1852.63
-99.3189 13.6223 1852.63
-99.8142 13.6223 1852.63
-100.247 13.5802 1846.91
-100.741 13.5802 1846.91
-101.235 13.5802 1846.91
-101.728 13.5802 1846.91
-102.222 13.5802 1846.91
-102.716 13.5802 1846.91
-103.21 13.5802 1846.91
-103.631 13.5385 1841.23
-104.123 13.5385 1841.23
-104.615 13.5385 1841.23
-105.108 13.5385 1841.23
-105.6 13.5385 1841.23
-106.092 13.5385 1841.23
-106.503 13.4969 1835.58
-106.994 13.4969 1835.58
-107.485 13.4969 1835.58
-107.975 13.4969 1835.58
-108.466 13.4969 1835.58
-108.957 13.4969 1835.58
-109.448 13.4969 1835.58
-109.847 13.4557 1829.97
-110.336 13.4557 1829.97
-110.826 13.4557 1829.97
-111.315 13.4557 1829.97
-111.804 13.4557 1829.97
-112.294 13.4557 1829.97
-112.783 13.4557 1829.97
-113.171 13.4146 1824.39
-113.659 13.4146 1824.39
-114.146 13.4146 1824.39
-114.634 13.4146 1824.39
-115.122 13.4146 1824.39
-115.61 13.4146 1824.39
-115.988 13.3739 1818.84
-116.474 13.3739 1818.84
-116.96 13.3739 1818.84
-117.447 13.3739 1818.84
-117.933 13.3739 1818.84
-118.419 13.3739 1818.84
-118.906 13.3739 1818.84
-119.273 13.3333 1813.33
-119.758 13.3333 1813.33
-120.242 13.3333 1813.33
-120.727 13.3333 1813.33
-121.212 13.3333 1813.33
-121.697 13.3333 1813.33
-122.182 13.3333 1813.33
-122.538 13.2931 1807.85
-123.021 13.2931 1807.85
-123.505 13.2931 1807.85
-123.988 13.2931 1807.85
-124.471 13.2931 1807.85
-124.955 13.2931 1807.85
-125.301 13.253 1802.41
-125.783 13.253 1802.41
-126.265 13.253 1802.41
-126.747 13.253 1802.41
-127.229 13.253 1802.41
-127.711 13.253 1802.41
-128.193 13.253 1802.41
-128.529 13.2132 1797
-129.009 13.2132 1797
-129.489 13.2132 1797
-129.97 13.2132 1797
-130.45 13.2132 1797
-130.931 13.2132 1797
-131.257 13.1737 1791.62
-131.737 13.1737 1791.62
-132.216 13.1737 1791.62
-132.695 13.1737 1791.62
-133.174 13.1737 1791.62
-133.653 13.1737 1791.62
-134.132 13.1737 1791.62
-134.611 13.1737 1791.62
-134.925 13.1343 1786.27
-135.403 13.1343 1786.27
-135.881 13.1343 1786.27
-136.358 13.1343 1786.27
-136.836 13.1343 1786.27
-137.313 13.1343 1786.27
-137.791 13.1343 1786.27
-138.269 13.1343 1786.27
-138.571 13.0952 1780.95
-139.048 13.0952 1780.95
-139.524 13.0952 1780.95
-140 13.0952 1780.95
-140.297 13.0564 1775.67
-140.772 13.0564 1775.67
-141.246 13.0564 1775.67
-141.721 13.0564 1775.67
-142.196 13.0564 1775.67
-142.671 13.0564 1775.67
-143.145 13.0564 1775.67
-143.432 13.0178 1770.41
-143.905 13.0178 1770.41
-144.379 13.0178 1770.41
-144.852 13.0178 1770.41
-145.325 13.0178 1770.41
-145.799 13.0178 1770.41
-146.272 13.0178 1770.41
-146.746 13.0178 1770.41
-147.021 12.9794 1765.19
-148.095 13.0952 1780.95
-149.189 13.2132 1797
-150.303 13.3333 1813.33
-149.94 13.1737 1791.62
-153.5 13.75 1870
-155.414 14.0127 1905.73
-155.924 14.0127 1905.73
-160 14.6667 1994.67
-162.177 14.966 2035.37
-158.961 14.2857 1942.86
-158.968 14.1935 1930.32
-159.484 14.1935 1930.32
-158.981 14.0127 1905.73
-159.238 13.9683 1899.68
-158.746 13.7931 1875.86
-159.497 13.8365 1881.76
-159.006 13.6646 1858.39
-158.528 13.4969 1835.58
-158.537 13.4146 1824.39
-158.545 13.3333 1813.33
-158.792 13.2931 1807.85
-159.275 13.2931 1807.85
-159.758 13.2931 1807.85
-160.242 13.2931 1807.85
-160.725 13.2931 1807.85
-161.208 13.2931 1807.85
-161.692 13.2931 1807.85
-162.175 13.2931 1807.85
-162.909 13.3333 1813.33
-163.142 13.2931 1807.85
-163.625 13.2931 1807.85
-164.364 13.3333 1813.33
-164.848 13.3333 1813.33
-165.333 13.3333 1813.33
-165.818 13.3333 1813.33
-166.303 13.3333 1813.33
-166.788 13.3333 1813.33
-167.273 13.3333 1813.33
-167.758 13.3333 1813.33
-168.242 13.3333 1813.33
-168.727 13.3333 1813.33
-169.212 13.3333 1813.33
-169.697 13.3333 1813.33
-170.182 13.3333 1813.33
-170.667 13.3333 1813.33
-171.152 13.3333 1813.33
-171.915 13.3739 1818.84
-172.121 13.3333 1813.33
-172.888 13.3739 1818.84
-173.374 13.3739 1818.84
-173.86 13.3739 1818.84
-174.347 13.3739 1818.84
-174.833 13.3739 1818.84
-175.319 13.3739 1818.84
-175.805 13.3739 1818.84
-176.292 13.3739 1818.84
-176.778 13.3739 1818.84
-177.264 13.3739 1818.84
-177.751 13.3739 1818.84
-178.237 13.3739 1818.84
-178.723 13.3739 1818.84
-179.21 13.3739 1818.84
-179.696 13.3739 1818.84
-180.182 13.3739 1818.84
-180.976 13.4146 1824.39
-181.463 13.4146 1824.39
-181.951 13.4146 1824.39
20.8092 13.1792 1729.48
20.3468 13.1792 1729.48
19.8844 13.1792 1729.48
19.422 13.1792 1729.48
19.2464 13.2174 1734.49
19.0698 13.2558 1739.53
18.6047 13.2558 1739.53
18.4257 13.2945 1744.61
17.9592 13.2945 1744.61
17.4927 13.2945 1744.61
17.0262 13.2945 1744.61
16.5598 13.2945 1744.61
16.0933 13.2945 1744.61
15.9064 13.3333 1749.71
15.4386 13.3333 1749.71
14.9708 13.3333 1749.71
14.7801 13.3724 1754.84
14.5882 13.4118 1760
14.1176 13.4118 1760
13.6471 13.4118 1760
13.4513 13.4513 1765.19
13.2544 13.4911 1770.41
12.5074 13.4513 1765.19
12.0354 13.4513 1765.19
11.8343 13.4911 1770.41
11.3609 13.4911 1770.41
10.8876 13.4911 1770.41
10.6825 13.5312 1775.67
10.2077 13.5312 1775.67
9.73294 13.5312 1775.67
9.52381 13.5714 1780.95
9.04762 13.5714 1780.95
8.57143 13.5714 1780.95
8.09524 13.5714 1780.95
7.61905 13.5714 1780.95
7.40299 13.6119 1786.27
7.18563 13.6527 1791.62
6.70659 13.6527 1791.62
6.22754 13.6527 1791.62
5.7485 13.6527 1791.62
5.52553 13.6937 1797
5.04505 13.6937 1797
4.56456 13.6937 1797
4.08408 13.6937 1797
3.85542 13.7349 1802.41
3.37349 13.7349 1802.41
2.89157 13.7349 1802.41
2.40964 13.7349 1802.41
2.17523 13.7764 1807.85
1.69184 13.7764 1807.85
1.20846 13.7764 1807.85
0.969697 13.8182 1813.33
0.241692 13.7764 1807.85
-0 13.8182 1813.33
-0.484848 13.8182 1813.33
-0.969697 13.8182 1813.33
-1.45455 13.8182 1813.33
-1.93939 13.8182 1813.33
-2.42424 13.8182 1813.33
-2.90909 13.8182 1813.33
-3.39394 13.8182 1813.33
-3.87879 13.8182 1813.33
-4.36364 13.8182 1813.33
-4.84848 13.8182 1813.33
-5.33333 13.8182 1813.33
-5.81818 13.8182 1813.33
-6.07903 13.8602 1818.84
-6.56535 13.8602 1818.84
-7.05167 13.8602 1818.84
-7.53799 13.8602 1818.84
-8.02432 13.8602 1818.84
-8.51064 13.8602 1818.84
-8.99696 13.8602 1818.84
-9.48328 13.8602 1818.84
-9.7561 13.9024 1824.39
-10.2439 13.9024 1824.39
-10.7317 13.9024 1824.39
-11.2195 13.9024 1824.39
-11.7073 13.9024 1824.39
-11.9878 13.945 1829.97
-12.4771 13.945 1829.97
-12.9664 13.945 1829.97
-13.2515 13.9877 1835.58
-13.7423 13.9877 1835.58
-14.0308 14.0308 1841.23
-14.5231 14.0308 1841.23
-15.0154 14.0308 1841.23
-15.3086 14.0741 1846.91
-15.8025 14.0741 1846.91
-16.0991 14.1176 1852.63
-16.3975 14.1615 1858.39
-16.6978 14.2056 1864.17
-17 14.25 1870
-17.1069 14.3396 1881.76
-17.2152 14.4304 1893.67
-16.9231 14.6154 1917.95
-17.0323 14.7097 1930.32
-16.5246 14.9508 1961.97
-16.6337 15.0495 1974.92
-16.1074 15.302 2008.05
-16 15.4576 2028.47
-15.8904 15.6164 2049.32
-15.7785 15.7785 2070.59
-15.4386 16 2099.65
-15.5477 16.1131 2114.49
-15.8865 16.1702 2121.99
-16.2278 16.2278 2129.54
-16.7972 16.2278 2129.54
-17.1429 16.2857 2137.14
-17.7143 16.2857 2137.14
-18.2857 16.2857 2137.14
-18.8571 16.2857 2137.14
-19.2115 16.3441 2144.8
-19.7849 16.3441 2144.8
-20.3584 16.3441 2144.8
-20.9319 16.3441 2144.8
-21.5054 16.3441 2144.8
-22.0789 16.3441 2144.8
-22.446 16.4029 2152.52
-23.0216 16.4029 2152.52
-23.5971 16.4029 2152.52
-24.1727 16.4029 2152.52
-24.7482 16.4029 2152.52
-25.3237 16.4029 2152.52
-25.8993 16.4029 2152.52
-26.4748 16.4029 2152.52
-27.0504 16.4029 2152.52
-27.6259 16.4029 2152.52
-28.2014 16.4029 2152.52
-28.5921 16.4621 2160.29
-29.1697 16.4621 2160.29
-29.7473 16.4621 2160.29
-30.3249 16.4621 2160.29
-30.9025 16.4621 2160.29
-31.4801 16.4621 2160.29
-32.0578 16.4621 2160.29
-32.6354 16.4621 2160.29
-33.0435 16.5217 2168.12
-33.6232 16.5217 2168.12
-34.2029 16.5217 2168.12
-34.7826 16.5217 2168.12
-35.3623 16.5217 2168.12
-35.942 16.5217 2168.12
-36.5217 16.5217 2168.12
-37.1014 16.5217 2168.12
-37.5273 16.5818 2176
-38.1091 16.5818 2176
-38.6909 16.5818 2176
-39.2727 16.5818 2176
-39.8545 16.5818 2176
-40.4364 16.5818 2176
-41.0182 16.5818 2176
-41.6 16.5818 2176
-42.1818 16.5818 2176
-42.6277 16.6423 2183.94
-43.2117 16.6423 2183.94
-43.7956 16.6423 2183.94
-44.3796 16.6423 2183.94
-44.9635 16.6423 2183.94
-45.5474 16.6423 2183.94
-46.1314 16.6423 2183.94
-46.7153 16.6423 2183.94
-47.2993 16.6423 2183.94
-47.7656 16.7033 2191.94
-48.3516 16.7033 2191.94
-48.9377 16.7033 2191.94
-49.5238 16.7033 2191.94
-50.1099 16.7033 2191.94
-50.696 16.7033 2191.94
-51.2821 16.7033 2191.94
-51.8681 16.7033 2191.94
-52.3529 16.7647 2200
-52.9412 16.7647 2200
-53.5294 16.7647 2200
-54.1176 16.7647 2200
-54.7059 16.7647 2200
-55.2941 16.7647 2200
-55.8824 16.7647 2200
-56.4706 16.7647 2200
-56.9742 16.8266 2208.12
-57.5646 16.8266 2208.12
-58.155 16.8266 2208.12
-58.7454 16.8266 2208.12
-59.3358 16.8266 2208.12
-59.9262 16.8266 2208.12
-60.5166 16.8266 2208.12
-61.107 16.8266 2208.12
-61.6974 16.8266 2208.12
-62.2222 16.8889 2216.3
-62.8148 16.8889 2216.3
-63.4074 16.8889 2216.3
-64 16.8889 2216.3
-64.5926 16.8889 2216.3
-65.1852 16.8889 2216.3
-65.7778 16.8889 2216.3
-66.3704 16.8889 2216.3
-66.963 16.8889 2216.3
-67.6015 16.8266 2208.12
-68.1919 16.8266 2208.12
-68.7823 16.8266 2208.12
-69.3727 16.8266 2208.12
-69.9259 16.8889 2216.3
-70.4833 16.9517 2224.54
-71.1111 16.8889 2216.3
-71.6729 16.9517 2224.54
-72.2677 16.9517 2224.54
-72.8625 16.9517 2224.54
-73.4572 16.9517 2224.54
-74.052 16.9517 2224.54
-74.6269 17.0149 2232.84
-75.2416 16.9517 2224.54
-75.8209 17.0149 2232.84
-76.4179 17.0149 2232.84
-77.0037 17.0787 2241.2
-77.603 17.0787 2241.2
-78.2022 17.0787 2241.2
-78.8015 17.0787 2241.2
-79.4007 17.0787 2241.2
-80 17.0787 2241.2
-80.6015 17.1429 2249.62
-81.1985 17.0787 2241.2
-81.8045 17.1429 2249.62
-82.397 17.0787 2241.2
-83.0075 17.1429 2249.62
-83.5955 17.0787 2241.2
-84.2105 17.1429 2249.62
-84.794 17.0787 2241.2
-85.4135 17.1429 2249.62
-85.9925 17.0787 2241.2
-86.6165 17.1429 2249.62
-87.218 17.1429 2249.62
-87.8195 17.1429 2249.62
-88.4211 17.1429 2249.62
-89.0226 17.1429 2249.62
-89.588 17.0787 2241.2
-90.1873 17.0787 2241.2
-90.7463 17.0149 2232.84
-91.2593 16.8889 2216.3
-91.6788 16.6423 2183.94
-92.13 16.4621 2160.29
-92.5267 16.2278 2129.54
-92.8671 15.9441 2092.31
-93.1507 15.6164 2049.32
-93.4228 15.302 2008.05
-93.7294 15.0495 1974.92
-93.9806 14.7573 1936.57
-94.359 14.6154 1917.95
-94.7771 14.5223 1905.73
-95.047 14.2947 1875.86
-95.5486 14.2947 1875.86
-95.9502 14.2056 1864.17
-96.3975 14.1615 1858.39
-96.8944 14.1615 1858.39
-97.3375 14.1176 1852.63
-97.8328 14.1176 1852.63
-98.3282 14.1176 1852.63
-98.8235 14.1176 1852.63
-99.3189 14.1176 1852.63
-99.8142 14.1176 1852.63
-100.247 14.0741 1846.91
-100.741 14.0741 1846.91
-101.235 14.0741 1846.91
-101.728 14.0741 1846.91
-102.222 14.0741 1846.91
-102.716 14.0741 1846.91
-103.21 14.0741 1846.91
-103.631 14.0308 1841.23
-104.123 14.0308 1841.23
-104.615 14.0308 1841.23
-105.108 14.0308 1841.23
-105.6 14.0308 1841.23
-106.092 14.0308 1841.23
-106.585 14.0308 1841.23
-106.994 13.9877 1835.58
-107.485 13.9877 1835.58
-107.975 13.9877 1835.58
-108.466 13.9877 1835.58
-108.957 13.9877 1835.58
-109.448 13.9877 1835.58
-109.939 13.9877 1835.58
-110.336 13.945 1829.97
-110.826 13.945 1829.97
-111.315 13.945 1829.97
-111.804 13.945 1829.97
-112.294 13.945 1829.97
-112.783 13.945 1829.97
-113.272 13.945 1829.97
-113.659 13.9024 1824.39
-114.146 13.9024 1824.39
-114.634 13.9024 1824.39
-115.122 13.9024 1824.39
-115.61 13.9024 1824.39
-115.988 13.8602 1818.84
-116.474 13.8602 1818.84
-116.96 13.8602 1818.84
-117.447 13.8602 1818.84
-117.933 13.8602 1818.84
-118.419 13.8602 1818.84
-118.906 13.8602 1818.84
-119.392 13.8602 1818.84
-119.758 13.8182 1813.33
-120.242 13.8182 1813.33
-120.727 13.8182 1813.33
-121.212 13.8182 1813.33
-121.697 13.8182 1813.33
-122.182 13.8182 1813.33
-122.538 13.7764 1807.85
-123.021 13.7764 1807.85
-123.505 13.7764 1807.85
-123.988 13.7764 1807.85
-124.471 13.7764 1807.85
-124.955 13.7764 1807.85
-125.438 13.7764 1807.85
-125.783 13.7349 1802.41
-126.265 13.7349 1802.41
-126.747 13.7349 1802.41
-127.229 13.7349 1802.41
-127.711 13.7349 1802.41
-128.193 13.7349 1802.41
-128.529 13.6937 1797
-129.009 13.6937 1797
-129.489 13.6937 1797
-129.97 13.6937 1797
-130.45 13.6937 1797
-130.931 13.6937 1797
-131.411 13.6937 1797
-131.737 13.6527 1791.62
-132.216 13.6527 1791.62
-132.695 13.6527 1791.62
-133.174 13.6527 1791.62
-133.653 13.6527 1791.62
-134.132 13.6527 1791.62
-134.448 13.6119 1786.27
-134.925 13.6119 1786.27
-135.403 13.6119 1786.27
-135.881 13.6119 1786.27
-136.358 13.6119 1786.27
-136.836 13.6119 1786.27
-137.313 13.6119 1786.27
-137.791 13.6119 1786.27
-138.269 13.6119 1786.27
-138.571 13.5714 1780.95
-139.048 13.5714 1780.95
-139.524 13.5714 1780.95
-140 13.5714 1780.95
-140.297 13.5312 1775.67
-140.772 13.5312 1775.67
-141.246 13.5312 1775.67
-141.721 13.5312 1775.67
-142.196 13.5312 1775.67
-142.671 13.5312 1775.67
-143.145 13.5312 1775.67
-143.62 13.5312 1775.67
-143.905 13.4911 1770.41
-144.379 13.4911 1770.41
-144.852 13.4911 1770.41
-145.325 13.4911 1770.41
-145.799 13.4911 1770.41
-146.272 13.4911 1770.41
-146.746 13.4911 1770.41
-147.418 13.5312 1775.67
-148.299 13.6119 1786.27
-148.571 13.5714 1780.95
-150.732 13.9024 1824.39
-151.003 13.8602 1818.84
-154.667 14.4762 1899.68
-157.134 14.8534 1949.19
-157.152 14.7573 1936.57
-157.17 14.6624 1924.12
-159.474 15 1968.42
-164.152 15.7785 2070.59
-162.703 15.4054 2021.62
-160.261 14.8534 1949.19
-163.502 15.3535 2014.81
-159.744 14.5687 1911.82
-159.494 14.4304 1893.67
-160 14.4304 1893.67
-159.006 14.1615 1858.39
-158.528 13.9877 1835.58
-158.537 13.9024 1824.39
-158.784 13.8602 1818.84
-159.03 13.8182 1813.33
-159.515 13.8182 1813.33
-159.758 13.7764 1807.85
-160.242 13.7764 1807.85
-160.97 13.8182 1813.33
-161.208 13.7764 1807.85
-161.939 13.8182 1813.33
-162.424 13.8182 1813.33
-162.659 13.7764 1807.85
-163.394 13.8182 1813.33
-163.879 13.8182 1813.33
-164.364 13.8182 1813.33
-164.848 13.8182 1813.33
-165.333 13.8182 1813.33
-165.818 13.8182 1813.33
-166.303 13.8182 1813.33
-166.788 13.8182 1813.33
-167.273 13.8182 1813.33
-167.758 13.8182 1813.33
-168.242 13.8182 1813.33
-168.727 13.8182 1813.33
-169.212 13.8182 1813.33
-169.97 13.8602 1818.84
-170.182 13.8182 1813.33
-170.667 13.8182 1813.33
-171.152 13.8182 1813.33
-171.915 13.8602 1818.84
-172.401 13.8602 1818.84
-172.888 13.8602 1818.84
-173.374 13.8602 1818.84
-173.86 13.8602 1818.84
-174.347 13.8602 1818.84
-174.833 13.8602 1818.84
-175.319 13.8602 1818.84
-175.805 13.8602 1818.84
-176.292 13.8602 1818.84
-176.778 13.8602 1818.84
-177.264 13.8602 1818.84
-177.751 13.8602 1818.84
-178.237 13.8602 1818.84
-178.723 13.8602 1818.84
-179.21 13.8602 1818.84
-179.696 13.8602 1818.84
-180.488 13.9024 1824.39
-180.976 13.9024 1824.39
-181.463 13.9024 1824.39
-181.951 13.9024 1824.39
20.8092 13.6416 1729.48
20.3468 13.6416 1729.48
19.8844 13.6416 1729.48
19.422 13.6416 1729.48
18.9595 13.6416 1729.48
19.0698 13.7209 1739.53
18.6047 13.7209 1739.53
18.4257 13.7609 1744.61
17.9592 13.7609 1744.61
17.4927 13.7609 1744.61
17.0262 13.7609 1744.61
16.8421 13.8012 1749.71
16.3743 13.8012 1749.71
15.9064 13.8012 1749.71
15.4386 13.8012 1749.71
15.2493 13.8416 1754.84
14.7801 13.8416 1754.84
14.3109 13.8416 1754.84
14.1176 13.8824 1760
13.6471 13.8824 1760
13.4513 13.9233 1765.19
12.9794 13.9233 1765.19
12.7811 13.9645 1770.41
12.3077 13.9645 1770.41
11.8343 13.9645 1770.41
11.632 14.0059 1775.67
11.1573 14.0059 1775.67
10.6825 14.0059 1775.67
10.2077 14.0059 1775.67
9.73294 14.0059 1775.67
9.52381 14.0476 1780.95
9.04762 14.0476 1780.95
8.57143 14.0476 1780.95
8.09524 14.0476 1780.95
7.61905 14.0476 1780.95
7.40299 14.0896 1786.27
7.18563 14.1317 1791.62
6.70659 14.1317 1791.62
5.97015 14.0896 1786.27
5.7485 14.1317 1791.62
5.52553 14.1742 1797
5.04505 14.1742 1797
4.56456 14.1742 1797
4.08408 14.1742 1797
3.85542 14.2169 1802.41
3.37349 14.2169 1802.41
2.89157 14.2169 1802.41
2.40964 14.2169 1802.41
2.17523 14.2598 1807.85
1.69184 14.2598 1807.85
1.20846 14.2598 1807.85
0.725076 14.2598 1807.85
0.241692 14.2598 1807.85
-0 14.303 1813.33
-0.484848 14.303 1813.33
-0.969697 14.303 1813.33
-1.45455 14.303 1813.33
-1.93939 14.303 1813.33
-2.42424 14.303 1813.33
-2.90909 14.303 1813.33
-3.39394 14.303 1813.33
-3.87879 14.303 1813.33
-4.36364 14.303 1813.33
-4.84848 14.303 1813.33
-5.33333 14.303 1813.33
-5.81818 14.303 1813.33
-6.07903 14.3465 1818.84
-6.56535 14.3465 1818.84
-7.05167 14.3465 1818.84
-7.53799 14.3465 1818.84
-8.02432 14.3465 1818.84
-8.51064 14.3465 1818.84
-8.99696 14.3465 1818.84
-9.48328 14.3465 1818.84
-9.7561 14.3902 1824.39
-10.2439 14.3902 1824.39
-10.7317 14.3902 1824.39
-11.2195 14.3902 1824.39
-11.7073 14.3902 1824.39
-11.9878 14.4343 1829.97
-12.4771 14.4343 1829.97
-12.9664 14.4343 1829.97
-13.2515 14.4785 1835.58
-13.7423 14.4785 1835.58
-14.2331 14.4785 1835.58
-14.5231 14.5231 1841.23
-15.0154 14.5231 1841.23
-15.3086 14.5679 1846.91
-15.8025 14.5679 1846.91
-16.0991 14.613 1852.63
-16.5944 14.613 1852.63
-16.6978 14.704 1864.17
-17 14.75 1870
-17.1069 14.8428 1881.76
-17.4132 14.8896 1887.7
-17.1246 15.0799 1911.82
-17.0323 15.2258 1930.32
-16.732 15.4248 1955.56
-16.4238 15.6291 1981.46
-16.1074 15.8389 2008.05
-16.2162 15.9459 2021.62
-15.8904 16.1644 2049.32
-15.5556 16.3889 2077.78
-15.8885 16.446 2085.02
-15.7746 16.6197 2107.04
-16.1131 16.6784 2114.49
-16.4539 16.7376 2121.99
-16.7972 16.7972 2129.54
-17.3665 16.7972 2129.54
-17.7143 16.8571 2137.14
-18.2857 16.8571 2137.14
-18.8571 16.8571 2137.14
-19.2115 16.9176 2144.8
-19.7849 16.9176 2144.8
-20.3584 16.9176 2144.8
-20.9319 16.9176 2144.8
-21.5054 16.9176 2144.8
-22.0789 16.9176 2144.8
-22.6523 16.9176 2144.8
-23.0216 16.9784 2152.52
-23.5971 16.9784 2152.52
-24.1727 16.9784 2152.52
-24.7482 16.9784 2152.52
-25.3237 16.9784 2152.52
-25.8993 16.9784 2152.52
-26.4748 16.9784 2152.52
-27.0504 16.9784 2152.52
-27.6259 16.9784 2152.52
-28.2014 16.9784 2152.52
-28.5921 17.0397 2160.29
-29.1697 17.0397 2160.29
-29.7473 17.0397 2160.29
-30.3249 17.0397 2160.29
-30.9025 17.0397 2160.29
-31.4801 17.0397 2160.29
-32.0578 17.0397 2160.29
-32.6354 17.0397 2160.29
-33.0435 17.1014 2168.12
-33.6232 17.1014 2168.12
-34.2029 17.1014 2168.12
-34.7826 17.1014 2168.12
-35.3623 17.1014 2168.12
-35.942 17.1014 2168.12
-36.5217 17.1014 2168.12
-37.1014 17.1014 2168.12
-37.6812 17.1014 2168.12
-38.1091 17.1636 2176
-38.6909 17.1636 2176
-39.2727 17.1636 2176
-39.8545 17.1636 2176
-40.4364 17.1636 2176
-41.0182 17.1636 2176
-41.6 17.1636 2176
-42.1818 17.1636 2176
-42.7636 17.1636 2176
-43.2117 17.2263 2183.94
-43.7956 17.2263 2183.94
-44.3796 17.2263 2183.94
-44.9635 17.2263 2183.94
-45.5474 17.2263 2183.94
-46.1314 17.2263 2183.94
-46.7153 17.2263 2183.94
-47.2993 17.2263 2183.94
-47.7656 17.2894 2191.94
-48.3516 17.2894 2191.94
