-182.313 69.932 2035.37
-180.8 68.5333 1994.67
-178.382 66.5372 1936.57
-175.5 64.25 1870
-172.81 62.1148 1807.85
-170.824 60.4706 1760
-168.94 58.9112 1714.61
-168.636 58.4091 1700
-168.588 58.0791 1690.4
-168.539 57.7528 1680.9
-168.739 57.591 1676.19
-169.438 57.7528 1680.9
-169.888 57.7528 1680.9
-170.337 57.7528 1680.9
-171.042 57.9155 1685.63
-171.751 58.0791 1690.4
-172.465 58.2436 1695.18
-172.918 58.2436 1695.18
-173.636 58.4091 1700
-174.359 58.5755 1704.84
-175.086 58.7429 1709.71
-175.817 58.9112 1714.61
-176.275 58.9112 1714.61
-177.011 59.0805 1719.54
-177.471 59.0805 1719.54
-178.213 59.2507 1724.5
22.029 60.058 1734.49
21.5652 60.058 1734.49
21.3953 60.2326 1739.53
20.9302 60.2326 1739.53
20.4651 60.2326 1739.53
20 60.2326 1739.53
19.5349 60.2326 1739.53
19.3586 60.4082 1744.61
18.8921 60.4082 1744.61
18.4257 60.4082 1744.61
17.9592 60.4082 1744.61
17.4927 60.4082 1744.61
17.3099 60.5848 1749.71
16.8421 60.5848 1749.71
16.3743 60.5848 1749.71
15.9064 60.5848 1749.71
15.7185 60.7625 1754.84
15.2493 60.7625 1754.84
14.7801 60.7625 1754.84
14.3109 60.7625 1754.84
14.1176 60.9412 1760
13.6471 60.9412 1760
13.1765 60.9412 1760
12.7059 60.9412 1760
12.5074 61.1209 1765.19
12.0354 61.1209 1765.19
11.5634 61.1209 1765.19
11.3609 61.3018 1770.41
10.6195 61.1209 1765.19
10.4142 61.3018 1770.41
9.94083 61.3018 1770.41
9.46746 61.3018 1770.41
9.25816 61.4837 1775.67
8.78338 61.4837 1775.67
8.30861 61.4837 1775.67
7.83383 61.4837 1775.67
7.35905 61.4837 1775.67
7.14286 61.6667 1780.95
6.66667 61.6667 1780.95
6.19048 61.6667 1780.95
5.71429 61.6667 1780.95
5.2381 61.6667 1780.95
4.7619 61.6667 1780.95
4.53731 61.8507 1786.27
4.0597 61.8507 1786.27
3.58209 61.8507 1786.27
3.35329 62.0359 1791.62
2.87425 62.0359 1791.62
2.39521 62.0359 1791.62
1.91617 62.0359 1791.62
1.68168 62.2222 1797
1.2012 62.2222 1797
0.720721 62.2222 1797
0.481928 62.4096 1802.41
-0 62.4096 1802.41
-0.481928 62.4096 1802.41
-0.963855 62.4096 1802.41
-1.20846 62.5982 1807.85
-1.69184 62.5982 1807.85
-2.17523 62.5982 1807.85
-2.42424 62.7879 1813.33
-2.90909 62.7879 1813.33
-3.39394 62.7879 1813.33
-3.64742 62.9787 1818.84
-4.13374 62.9787 1818.84
-4.62006 62.9787 1818.84
-5.10638 62.9787 1818.84
-5.59271 62.9787 1818.84
-6.07903 62.9787 1818.84
-6.56535 62.9787 1818.84
-7.05167 62.9787 1818.84
-7.53799 62.9787 1818.84
-8.02432 62.9787 1818.84
-8.51064 62.9787 1818.84
-8.99696 62.9787 1818.84
-9.69697 62.7879 1813.33
-9.7561 63.1707 1824.39
-9.6 63.7538 1841.23
-11.7718 62.2222 1797
-9.5 64.75 1870
-9.78056 64.953 1875.86
-9.62025 65.5696 1893.67
-9.90476 65.7778 1899.68
-11.7134 64.5483 1864.17
-11.1392 65.5696 1893.67
-11.8612 65.3628 1887.7
-11.7197 65.9873 1905.73
-10.9091 67.2727 1942.86
-10.7541 67.9344 1961.97
-9.42761 69.7643 2014.81
-5.97865 73.7367 2129.54
-4.3956 75.8974 2191.94
-2.42424 78.4848 2266.67
-2.73764 78.7833 2275.29
0.318725 82.5498 2384.06
0.645161 83.5484 2412.9
0.650407 84.2276 2432.52
0.326531 84.5714 2442.45
-0 84.918 2452.46
2.73504 88.547 2557.26
-1.31148 84.918 2452.46
-2.28571 84.5714 2442.45
-4.48 82.88 2393.6
-8 79.6923 2301.54
-11.5129 76.4576 2208.12
-14.7518 73.4752 2121.99
-17.5342 70.9589 2049.32
-22.2364 66.1981 1911.82
-22.9299 65.9873 1905.73
-25.6881 63.3639 1829.97
-26.6667 62.7879 1813.33
-27.1515 62.7879 1813.33
-27.9518 62.4096 1802.41
-28.4337 62.4096 1802.41
-28.9157 62.4096 1802.41
-29.3976 62.4096 1802.41
-30.03 62.2222 1797
-30.5105 62.2222 1797
-30.991 62.2222 1797
-31.4715 62.2222 1797
-31.952 62.2222 1797
-32.4324 62.2222 1797
-32.9129 62.2222 1797
-33.5329 62.0359 1791.62
-33.8739 62.2222 1797
-34.491 62.0359 1791.62
-34.9701 62.0359 1791.62
-35.4491 62.0359 1791.62
-35.9281 62.0359 1791.62
-36.4072 62.0359 1791.62
-36.8862 62.0359 1791.62
-37.3653 62.0359 1791.62
-37.8443 62.0359 1791.62
-38.3234 62.0359 1791.62
-38.8024 62.0359 1791.62
-39.2814 62.0359 1791.62
-39.7605 62.0359 1791.62
-40.2395 62.0359 1791.62
-40.7186 62.0359 1791.62
-41.1976 62.0359 1791.62
-41.5616 62.2222 1797
-42.042 62.2222 1797
-42.5225 62.2222 1797
-43.003 62.2222 1797
-43.4835 62.2222 1797
-43.964 62.2222 1797
-44.3373 62.4096 1802.41
-44.8193 62.4096 1802.41
-45.3012 62.4096 1802.41
-45.7831 62.4096 1802.41
-46.2651 62.4096 1802.41
-46.747 62.4096 1802.41
-47.3273 62.2222 1797
-47.8078 62.2222 1797
-48.2883 62.2222 1797
-48.7688 62.2222 1797
-49.2492 62.2222 1797
-49.7297 62.2222 1797
-50.2102 62.2222 1797
-50.6907 62.2222 1797
-51.1712 62.2222 1797
-51.6517 62.2222 1797
-52.1321 62.2222 1797
-52.6126 62.2222 1797
-53.0931 62.2222 1797
-53.5736 62.2222 1797
-54.0541 62.2222 1797
-54.4578 62.4096 1802.41
-54.9398 62.4096 1802.41
-55.3474 62.5982 1807.85
-55.8308 62.5982 1807.85
-56.3142 62.5982 1807.85
-56.7976 62.5982 1807.85
-57.281 62.5982 1807.85
-57.7644 62.5982 1807.85
-58.2477 62.5982 1807.85
-58.7311 62.5982 1807.85
-59.2145 62.5982 1807.85
-59.6979 62.5982 1807.85
-60.1813 62.5982 1807.85
-60.6647 62.5982 1807.85
-61.148 62.5982 1807.85
-61.6314 62.5982 1807.85
-62.1148 62.5982 1807.85
-62.5982 62.5982 1807.85
-63.0816 62.5982 1807.85
-63.565 62.5982 1807.85
-64.0483 62.5982 1807.85
-64.5317 62.5982 1807.85
-65.0151 62.5982 1807.85
-65.4985 62.5982 1807.85
-65.9819 62.5982 1807.85
-66.4653 62.5982 1807.85
-66.9486 62.5982 1807.85
-67.432 62.5982 1807.85
-67.9154 62.5982 1807.85
-68.3988 62.5982 1807.85
-68.8822 62.5982 1807.85
-69.3976 62.4096 1802.41
-69.8795 62.4096 1802.41
-70.3614 62.4096 1802.41
-70.8709 62.2222 1797
-71.3514 62.2222 1797
-71.9048 61.6667 1780.95
-72.4036 61.4837 1775.67
-72.8783 61.4837 1775.67
-73.4118 60.9412 1760
-73.9003 60.7625 1754.84
-74.3695 60.7625 1754.84
-74.8837 60.2326 1739.53
-75.3488 60.2326 1739.53
-75.8261 60.058 1734.49
-76.2899 60.058 1734.49
-76.7536 60.058 1734.49
-77.2174 60.058 1734.49
-77.6812 60.058 1734.49
-78.1449 60.058 1734.49
-78.6087 60.058 1734.49
-79.0725 60.058 1734.49
-79.5362 60.058 1734.49
-80 60.058 1734.49
-80.4638 60.058 1734.49
-80.9275 60.058 1734.49
-81.3953 60.2326 1739.53
-81.8605 60.2326 1739.53
-82.3324 60.4082 1744.61
-82.807 60.5848 1749.71
-83.2941 60.9412 1760
-83.787 61.3018 1770.41
-84.2857 61.6667 1780.95
-84.8048 62.2222 1797
-85.3333 62.7879 1813.33
-85.8896 63.5583 1835.58
-86.4596 64.3478 1858.39
-87.0219 64.953 1875.86
-87.619 65.7778 1899.68
-88.1789 66.1981 1911.82
-88.8312 67.2727 1942.86
-89.3506 67.2727 1942.86
-90.033 68.3828 1974.92
-90.2894 66.6238 1924.12
-90.7348 66.1981 1911.82
-91.1746 65.7778 1899.68
-91.6088 65.3628 1887.7
-91.9626 64.5483 1864.17
-92.3457 63.9506 1846.91
-92.8793 64.1486 1852.63
-93.211 63.3639 1829.97
-93.494 62.4096 1802.41
-93.9759 62.4096 1802.41
-94.4144 62.2222 1797
-94.8503 62.0359 1791.62
-95.3293 62.0359 1791.62
-95.8084 62.0359 1791.62
-96.2388 61.8507 1786.27
-96.7164 61.8507 1786.27
-97.194 61.8507 1786.27
-97.6716 61.8507 1786.27
-98.1493 61.8507 1786.27
-98.6269 61.8507 1786.27
-99.1045 61.8507 1786.27
-99.5821 61.8507 1786.27
-100.06 61.8507 1786.27
-100.537 61.8507 1786.27
-101.015 61.8507 1786.27
-101.493 61.8507 1786.27
-101.97 61.8507 1786.27
-102.448 61.8507 1786.27
-102.857 61.6667 1780.95
-103.333 61.6667 1780.95
-103.81 61.6667 1780.95
-104.214 61.4837 1775.67
-104.762 61.6667 1780.95
-104.941 60.9412 1760
-105.263 60.5848 1749.71
-105.656 60.4082 1744.61
-106.122 60.4082 1744.61
-106.512 60.2326 1739.53
-106.667 59.5402 1719.54
-107.205 59.7118 1724.5
-107.666 59.7118 1724.5
-107.966 59.3696 1714.61
-108.424 59.3696 1714.61
-108.883 59.3696 1714.61
-109.341 59.3696 1714.61
-109.799 59.3696 1714.61
-110.52 59.8844 1729.48
-111.163 60.2326 1739.53
-112 60.9412 1760
-112.857 61.6667 1780.95
-114.251 63.3639 1829.97
-115.062 63.9506 1846.91
-117.647 67.7124 1955.56
-118.804 68.8372 1988.04
-118.693 67.7124 1955.56
-126.693 80.6226 2328.4
-130.456 85.9751 2482.99
-131.333 86.3333 2493.33
-133.333 88.547 2557.26
-134.957 90.087 2601.74
-137.143 92.5 2671.43
-136.104 89.697 2590.48
-133.992 85.2675 2462.55
-133.333 83.2129 2403.21
-126.027 70.9589 2049.32
-123.73 66.6238 1924.12
-123.544 65.5696 1893.67
-122.054 62.5982 1807.85
-120.93 60.2326 1739.53
-121.037 59.7118 1724.5
-121.499 59.7118 1724.5
-122.081 59.8844 1729.48
-122.791 60.2326 1739.53
-123.509 60.5848 1749.71
-124.497 61.3018 1770.41
-125.238 61.6667 1780.95
-126.126 62.2222 1797
-126.328 61.8507 1786.27
-127.087 62.2222 1797
-127.425 62.0359 1791.62
-126.921 60.7625 1754.84
-126.977 60.2326 1739.53
-126.897 59.5402 1719.54
-127.356 59.5402 1719.54
-127.543 59.2 1709.71
-128 59.2 1709.71
-128.457 59.2 1709.71
-129.054 59.3696 1714.61
-130.824 60.9412 1760
-131.144 60.7625 1754.84
-133.172 62.5982 1807.85
-133.818 62.7879 1813.33
-134.139 62.5982 1807.85
-134.622 62.5982 1807.85
-133.964 61.3018 1770.41
-135.589 62.5982 1807.85
-135.904 62.4096 1802.41
-134.577 60.4082 1744.61
-135.205 60.5848 1749.71
-135.349 60.2326 1739.53
-135.652 60.058 1734.49
-135.793 59.7118 1724.5
-136.092 59.5402 1719.54
-136.552 59.5402 1719.54
-137.011 59.5402 1719.54
-137.307 59.3696 1714.61
-137.765 59.3696 1714.61
-138.223 59.3696 1714.61
-138.682 59.3696 1714.61
-139.14 59.3696 1714.61
-139.599 59.3696 1714.61
-140.057 59.3696 1714.61
-140.516 59.3696 1714.61
-141.149 59.5402 1719.54
-141.609 59.5402 1719.54
-142.069 59.5402 1719.54
-142.35 59.3696 1714.61
-142.808 59.3696 1714.61
-143.086 59.2 1709.71
-144.092 59.7118 1724.5
-145.116 60.2326 1739.53
-146.746 61.3018 1770.41
-149.058 62.9787 1818.84
-151.95 65.1572 1881.76
-155.541 67.9344 1961.97
-160.836 72.1951 2085.02
-165.255 75.6204 2183.94
-176.79 85.2675 2462.55
-177.851 85.6198 2472.73
-184.105 90.4803 2613.1
-186.667 92.0889 2659.56
-185.502 90.4803 2613.1
-191.05 94.6119 2732.42
-185.064 88.927 2568.24
-181.399 85.2675 2462.55
-178.024 81.8972 2365.22
-158 64.75 1870
-161.824 67.4919 1949.19
-152.853 59.7118 1724.5
-152.479 59.0313 1704.84
-152.316 58.5311 1690.4
-151.955 57.8771 1671.51
-152 57.5556 1662.22
-152.044 57.2376 1653.04
-152.287 57.0799 1648.48
-152.727 57.0799 1648.48
-153.37 57.2376 1653.04
-154.429 57.7159 1666.85
-155.932 58.5311 1690.4
-157.479 59.3696 1714.61
-159.07 60.2326 1739.53
-159.304 60.058 1734.49
-161.905 61.6667 1780.95
-163.373 62.4096 1802.41
-167.273 64.953 1875.86
-165.627 63.3639 1829.97
-165.076 62.5982 1807.85
-166.341 63.1707 1824.39
-166.565 62.9787 1818.84
-167.052 62.9787 1818.84
-167.805 63.1707 1824.39
-169.659 64.1486 1852.63
-172.152 65.5696 1893.67
-175.065 67.2727 1942.86
-178.792 69.5302 2008.05
-182.422 71.6955 2070.59
-185.907 73.7367 2129.54
-187.626 74.5324 2152.52
-187.429 74 2137.14
-185.734 72.4476 2092.31
-182.703 70 2021.62
-177.949 66.4103 1917.95
-176 64.75 1870
-174.146 63.1707 1824.39
-171.834 61.3018 1770.41
-170.698 60.2326 1739.53
-170.115 59.5402 1719.54
-169.545 58.8636 1700
-169.745 58.6969 1695.18
-169.69 58.3662 1685.63
-170.395 58.5311 1690.4
-170.847 58.5311 1690.4
-171.299 58.5311 1690.4
-172.011 58.6969 1695.18
-172.727 58.8636 1700
-173.447 59.0313 1704.84
-173.903 59.0313 1704.84
-174.629 59.2 1709.71
-175.358 59.3696 1714.61
-175.817 59.3696 1714.61
-176.552 59.5402 1719.54
-177.011 59.5402 1719.54
-177.471 59.5402 1719.54
-178.213 59.7118 1724.5
22.029 60.5217 1734.49
21.5652 60.5217 1734.49
21.1014 60.5217 1734.49
20.9302 60.6977 1739.53
20.4651 60.6977 1739.53
20 60.6977 1739.53
19.5349 60.6977 1739.53
19.0698 60.6977 1739.53
18.8921 60.8746 1744.61
18.4257 60.8746 1744.61
17.9592 60.8746 1744.61
17.4927 60.8746 1744.61
17.3099 61.0526 1749.71
16.5598 60.8746 1744.61
16.3743 61.0526 1749.71
15.9064 61.0526 1749.71
15.7185 61.2317 1754.84
15.2493 61.2317 1754.84
14.7801 61.2317 1754.84
14.3109 61.2317 1754.84
14.1176 61.4118 1760
13.6471 61.4118 1760
13.1765 61.4118 1760
12.7059 61.4118 1760
12.5074 61.5929 1765.19
12.0354 61.5929 1765.19
11.5634 61.5929 1765.19
11.0914 61.5929 1765.19
10.8876 61.7751 1770.41
10.4142 61.7751 1770.41
9.94083 61.7751 1770.41
9.46746 61.7751 1770.41
8.99408 61.7751 1770.41
8.78338 61.9585 1775.67
8.30861 61.9585 1775.67
7.83383 61.9585 1775.67
7.35905 61.9585 1775.67
6.88427 61.9585 1775.67
6.66667 62.1429 1780.95
6.19048 62.1429 1780.95
5.71429 62.1429 1780.95
5.49254 62.3284 1786.27
4.7619 62.1429 1780.95
4.53731 62.3284 1786.27
4.0597 62.3284 1786.27
3.58209 62.3284 1786.27
3.35329 62.515 1791.62
2.87425 62.515 1791.62
2.39521 62.515 1791.62
1.91617 62.515 1791.62
1.68168 62.7027 1797
1.2012 62.7027 1797
0.720721 62.7027 1797
0.24024 62.7027 1797
-0 62.8916 1802.41
-0.481928 62.8916 1802.41
-0.963855 62.8916 1802.41
-1.20846 63.0816 1807.85
-1.69184 63.0816 1807.85
-2.17523 63.0816 1807.85
-2.65861 63.0816 1807.85
-3.14199 63.0816 1807.85
-3.39394 63.2727 1813.33
-3.64742 63.465 1818.84
-4.36364 63.2727 1813.33
-4.62006 63.465 1818.84
-5.10638 63.465 1818.84
-5.59271 63.465 1818.84
-6.07903 63.465 1818.84
-6.56535 63.465 1818.84
-7.05167 63.465 1818.84
-7.53799 63.465 1818.84
-8.02432 63.465 1818.84
-8.51064 63.465 1818.84
-8.99696 63.465 1818.84
-9.26829 63.6585 1824.39
-9.54128 63.8532 1829.97
-9.38272 64.4444 1846.91
-8.10127 66.0759 1893.67
-7.69231 66.9231 1917.95
-8.20513 66.9231 1917.95
-7.32026 68.2353 1955.56
-8.77419 67.3548 1930.32
-8.83117 67.7922 1942.86
-10.2564 66.9231 1917.95
-10.3226 67.3548 1930.32
-11.0611 67.1383 1924.12
-10.9091 67.7922 1942.86
-10.9804 68.2353 1955.56
-8.70748 71.0204 2035.37
-7.01754 73.2632 2099.65
-4.11765 76.7647 2200
-2.12928 79.3916 2275.29
-2.14559 80 2292.72
-1.55642 81.2451 2328.4
-0.948617 82.5296 2365.22
-0.956175 83.1873 2384.06
-1.59363 83.1873 2384.06
-1.92 83.52 2393.6
-3.1746 82.8571 2374.6
-4.11067 82.5296 2365.22
-5.03937 82.2047 2355.91
-5.66929 82.2047 2355.91
-10.1493 77.9104 2232.84
-11.7647 76.7647 2200
-15.8885 72.7526 2085.02
-20 68.6842 1968.42
-21.1075 68.013 1949.19
-23.47 65.8675 1887.7
-25.0155 64.644 1852.63
-26.1774 63.8532 1829.97
-26.9909 63.465 1818.84
-27.7946 63.0816 1807.85
-28.2779 63.0816 1807.85
-28.9157 62.8916 1802.41
-29.3976 62.8916 1802.41
-30.03 62.7027 1797
-30.5105 62.7027 1797
-30.991 62.7027 1797
-31.4715 62.7027 1797
-31.952 62.7027 1797
-32.4324 62.7027 1797
-33.0539 62.515 1791.62
-33.5329 62.515 1791.62
-34.012 62.515 1791.62
-34.491 62.515 1791.62
-34.9701 62.515 1791.62
-35.4491 62.515 1791.62
-35.9281 62.515 1791.62
-36.4072 62.515 1791.62
-36.8862 62.515 1791.62
-37.3653 62.515 1791.62
-37.8443 62.515 1791.62
-38.3234 62.515 1791.62
-38.8024 62.515 1791.62
-39.2814 62.515 1791.62
-39.7605 62.515 1791.62
-40.2395 62.515 1791.62
-40.7186 62.515 1791.62
-41.1976 62.515 1791.62
-41.6766 62.515 1791.62
-42.042 62.7027 1797
-42.5225 62.7027 1797
-43.003 62.7027 1797
-43.4835 62.7027 1797
-43.964 62.7027 1797
-44.4444 62.7027 1797
-44.9249 62.7027 1797
-45.3012 62.8916 1802.41
-45.8859 62.7027 1797
-46.3664 62.7027 1797
-46.8468 62.7027 1797
-47.3273 62.7027 1797
-47.7108 62.8916 1802.41
-48.2883 62.7027 1797
-48.7688 62.7027 1797
-49.2492 62.7027 1797
-49.7297 62.7027 1797
-50.2102 62.7027 1797
-50.6907 62.7027 1797
-51.1712 62.7027 1797
-51.6517 62.7027 1797
-52.1321 62.7027 1797
-52.6126 62.7027 1797
-53.0931 62.7027 1797
-53.5736 62.7027 1797
-54.0541 62.7027 1797
-54.4578 62.8916 1802.41
-54.9398 62.8916 1802.41
-55.3474 63.0816 1807.85
-55.8308 63.0816 1807.85
-56.3142 63.0816 1807.85
-56.7976 63.0816 1807.85
-57.281 63.0816 1807.85
-57.7644 63.0816 1807.85
-58.2477 63.0816 1807.85
-58.7311 63.0816 1807.85
-59.2145 63.0816 1807.85
-59.6979 63.0816 1807.85
-60.1813 63.0816 1807.85
-60.6647 63.0816 1807.85
-61.148 63.0816 1807.85
-61.6314 63.0816 1807.85
-62.1148 63.0816 1807.85
-62.5982 63.0816 1807.85
-63.0816 63.0816 1807.85
-63.565 63.0816 1807.85
-64.0483 63.0816 1807.85
-64.5317 63.0816 1807.85
-65.0151 63.0816 1807.85
-65.4985 63.0816 1807.85
-65.9819 63.0816 1807.85
-66.4653 63.0816 1807.85
-66.9486 63.0816 1807.85
-67.432 63.0816 1807.85
-67.9154 63.0816 1807.85
-68.3988 63.0816 1807.85
-68.8822 63.0816 1807.85
-69.3656 63.0816 1807.85
-69.8795 62.8916 1802.41
-70.3614 62.8916 1802.41
-70.8709 62.7027 1797
-71.3772 62.515 1791.62
-71.9048 62.1429 1780.95
-72.426 61.7751 1770.41
-72.8994 61.7751 1770.41
-73.4118 61.4118 1760
-73.9003 61.2317 1754.84
-74.4023 60.8746 1744.61
-74.8837 60.6977 1739.53
-75.3623 60.5217 1734.49
-75.814 60.6977 1739.53
-76.2899 60.5217 1734.49
-76.7536 60.5217 1734.49
-77.2174 60.5217 1734.49
-77.6812 60.5217 1734.49
-78.1449 60.5217 1734.49
-78.6087 60.5217 1734.49
-79.0725 60.5217 1734.49
-79.5362 60.5217 1734.49
-80 60.5217 1734.49
-80.4638 60.5217 1734.49
-80.9275 60.5217 1734.49
-81.3953 60.6977 1739.53
-81.8605 60.6977 1739.53
-82.3324 60.8746 1744.61
-82.807 61.0526 1749.71
-83.2845 61.2317 1754.84
-83.787 61.7751 1770.41
-84.2478 61.5929 1765.19
-84.8193 62.8916 1802.41
-85.3495 63.465 1818.84
-85.9443 64.644 1852.63
-86.5409 65.6604 1881.76
-87.1565 66.7093 1911.82
-87.767 67.5728 1936.57
-88.3388 68.013 1949.19
-89.0365 69.3688 1988.04
-89.505 68.9109 1974.92
-90.2013 70.0671 2008.05
-90.2236 66.7093 1911.82
-90.6667 66.2857 1899.68
-91.0692 65.6604 1881.76
-91.5 65.25 1870
-91.7791 64.0491 1835.58
-92.3457 64.4444 1846.91
-92.8 64.2462 1841.23
-93.0514 63.0816 1807.85
-93.494 62.8916 1802.41
-93.9339 62.7027 1797
-94.3713 62.515 1791.62
-94.8503 62.515 1791.62
-95.3293 62.515 1791.62
-95.8084 62.515 1791.62
-96.2388 62.3284 1786.27
-96.7164 62.3284 1786.27
-97.194 62.3284 1786.27
-97.6716 62.3284 1786.27
-98.1493 62.3284 1786.27
-98.6269 62.3284 1786.27
-99.1045 62.3284 1786.27
-99.5821 62.3284 1786.27
-100.06 62.3284 1786.27
-100.537 62.3284 1786.27
-101.015 62.3284 1786.27
-101.493 62.3284 1786.27
-101.97 62.3284 1786.27
-102.381 62.1429 1780.95
-102.857 62.1429 1780.95
-103.333 62.1429 1780.95
-103.81 62.1429 1780.95
-104.286 62.1429 1780.95
-104.688 61.9585 1775.67
-105.089 61.7751 1770.41
-105.263 61.0526 1749.71
-105.656 60.8746 1744.61
-106.047 60.6977 1739.53
-106.435 60.5217 1734.49
-106.59 59.8281 1714.61
-107.126 60 1719.54
-107.666 60.1729 1724.5
-107.966 59.8281 1714.61
-108.424 59.8281 1714.61
-108.883 59.8281 1714.61
-109.341 59.8281 1714.61
-109.971 60.1729 1724.5
-110.698 60.6977 1739.53
-111.529 61.4118 1760
-112.575 62.515 1791.62
-113.455 63.2727 1813.33
-114.356 64.0491 1835.58
-117.124 68.2353 1955.56
-119.317 71.2628 2042.32
-119.064 69.8328 2001.34
-122.59 75.1079 2152.52
-127.059 81.8824 2346.67
-133.333 91.5789 2624.56
-135.247 93.6323 2683.41
-134.978 91.9824 2636.12
-136.429 93.2143 2671.43
-138.716 95.7798 2744.95
-137.6 92.8 2659.56
-139.099 94.0541 2695.5
-135.798 87.7311 2514.29
-133.76 83.52 2393.6
-124.444 68.2353 1955.56
-125.115 68.459 1961.97
-121.429 62.1429 1780.95
-121.412 61.4118 1760
-121.156 60.3468 1729.48
-121.618 60.3468 1729.48
-122.326 60.6977 1739.53
-123.167 61.2317 1754.84
-123.894 61.5929 1765.19
-125.438 63.0816 1807.85
-126.483 63.8532 1829.97
-127.554 64.644 1852.63
-127.754 64.2462 1841.23
-127.951 63.8532 1829.97
-127.855 63.0816 1807.85
-128.485 63.2727 1813.33
-127.39 61.2317 1754.84
-127.304 60.5217 1734.49
-127.768 60.5217 1734.49
-127.679 59.8281 1714.61
-128 59.6571 1709.71
-128.457 59.6571 1709.71
-129.054 59.8281 1714.61
-130.526 61.0526 1749.71
-131.294 61.4118 1760
-131.917 61.5929 1765.19
-132.544 61.7751 1770.41
-133.018 61.7751 1770.41
-133.97 62.3284 1786.27
-134.125 61.9585 1775.67
-134.925 62.3284 1786.27
-135.074 61.9585 1775.67
-134.737 61.0526 1749.71
-135.044 60.8746 1744.61
-135.349 60.6977 1739.53
-135.652 60.5217 1734.49
-135.793 60.1729 1724.5
-136.254 60.1729 1724.5
-136.715 60.1729 1724.5
-137.011 60 1719.54
-137.471 60 1719.54
-137.765 59.8281 1714.61
-138.223 59.8281 1714.61
-138.851 60 1719.54
-139.31 60 1719.54
-139.77 60 1719.54
-140.23 60 1719.54
-140.69 60 1719.54
-141.326 60.1729 1724.5
-141.609 60 1719.54
-142.248 60.1729 1724.5
-142.529 60 1719.54
-142.989 60 1719.54
-143.448 60 1719.54
-143.908 60 1719.54
-145.497 61.0526 1749.71
-146.746 61.7751 1770.41
-149.693 64.0491 1835.58
-153.333 66.9231 1917.95
-157.838 70.5405 2021.62
-163.453 75.1079 2152.52
-167.491 78.2022 2241.2
-177.593 86.639 2482.99
-187.149 94.4796 2707.69
-190.37 96.6667 2770.37
-187.143 93.2143 2671.43
-186.432 91.9824 2636.12
-186.667 91.5789 2624.56
-184.615 89.2308 2557.26
-183.529 87.7311 2514.29
-158.981 66.4968 1905.73
-162.649 69.1391 1981.46
-158.012 64.8447 1858.39
-156.145 62.8916 1802.41
-153.103 60 1719.54
-152.316 58.9831 1690.4
-152.157 58.4874 1676.19
-152 58 1662.22
-152.044 57.6796 1653.04
-152.287 57.5207 1648.48
-152.727 57.5207 1648.48
-153.37 57.6796 1653.04
-154.222 58 1662.22
-155.294 58.4874 1676.19
-156.169 58.8169 1685.63
-157.273 59.3182 1700
-158.621 60 1719.54
-159.538 60.3468 1729.48
-160.936 61.0526 1749.71
-162.124 61.5929 1765.19
-162.84 61.7751 1770.41
-163.561 61.9585 1775.67
-164.036 61.9585 1775.67
-164.51 61.9585 1775.67
-165.238 62.1429 1780.95
-166.486 62.7027 1797
-168.834 64.0491 1835.58
-173.333 66.9231 1917.95
-175.686 68.2353 1955.56
-180.478 71.2628 2042.32
-184.965 74.0426 2121.99
-189.412 76.7647 2200
-197.333 81.8824 2346.67
-193.083 78.4962 2249.62
-191.176 76.7647 2200
-189.747 75.3791 2160.29
-184.3 71.2628 2042.32
-181.386 68.9109 1974.92
-178.032 66.2857 1899.68
-174.634 63.6585 1824.39
-172.582 61.9585 1775.67
-171.696 61.0526 1749.71
-171.362 60.5217 1734.49
-170.774 59.8281 1714.61
-170.712 59.4872 1704.84
-170.652 59.1501 1695.18
-171.105 59.1501 1695.18
-171.558 59.1501 1695.18
-172.273 59.3182 1700
-172.991 59.4872 1704.84
-173.447 59.4872 1704.84
-174.441 59.8281 1714.61
-175.172 60 1719.54
-175.632 60 1719.54
-176.092 60 1719.54
-176.552 60 1719.54
-177.011 60 1719.54
-177.752 60.1729 1724.5
-178.213 60.1729 1724.5
22.029 60.9855 1734.49
21.5652 60.9855 1734.49
21.1014 60.9855 1734.49
20.6377 60.9855 1734.49
20.1739 60.9855 1734.49
20 61.1628 1739.53
19.5349 61.1628 1739.53
19.0698 61.1628 1739.53
18.6047 61.1628 1739.53
18.4257 61.3411 1744.61
17.9592 61.3411 1744.61
17.4927 61.3411 1744.61
17.0262 61.3411 1744.61
16.5598 61.3411 1744.61
16.0933 61.3411 1744.61
15.9064 61.5205 1749.71
15.1603 61.3411 1744.61
14.9708 61.5205 1749.71
14.5029 61.5205 1749.71
14.3109 61.7009 1754.84
13.8416 61.7009 1754.84
13.6471 61.8824 1760
13.1765 61.8824 1760
12.7059 61.8824 1760
12.2353 61.8824 1760
12.0354 62.0649 1765.19
11.5634 62.0649 1765.19
11.0914 62.0649 1765.19
10.6195 62.0649 1765.19
10.4142 62.2485 1770.41
9.94083 62.2485 1770.41
9.46746 62.2485 1770.41
8.99408 62.2485 1770.41
8.78338 62.4332 1775.67
8.30861 62.4332 1775.67
7.83383 62.4332 1775.67
7.35905 62.4332 1775.67
6.88427 62.4332 1775.67
6.66667 62.619 1780.95
6.19048 62.619 1780.95
5.71429 62.619 1780.95
5.2381 62.619 1780.95
4.7619 62.619 1780.95
4.53731 62.806 1786.27
4.0597 62.806 1786.27
3.58209 62.806 1786.27
3.10448 62.806 1786.27
2.87425 62.994 1791.62
2.39521 62.994 1791.62
1.91617 62.994 1791.62
1.43713 62.994 1791.62
1.2012 63.1832 1797
0.720721 63.1832 1797
0.24024 63.1832 1797
-0 63.3735 1802.41
-0.481928 63.3735 1802.41
-0.963855 63.3735 1802.41
-1.20846 63.565 1807.85
-1.69184 63.565 1807.85
-2.17523 63.565 1807.85
-2.42424 63.7576 1813.33
-3.14199 63.565 1807.85
-3.39394 63.7576 1813.33
-3.87879 63.7576 1813.33
-4.36364 63.7576 1813.33
-4.84848 63.7576 1813.33
-5.10638 63.9514 1818.84
-5.59271 63.9514 1818.84
-6.07903 63.9514 1818.84
-6.56535 63.9514 1818.84
-7.05167 63.9514 1818.84
-7.53799 63.9514 1818.84
-8.02432 63.9514 1818.84
-8.51064 63.9514 1818.84
-8.99696 63.9514 1818.84
-9.05199 64.3425 1829.97
-9.54128 64.3425 1829.97
-8.9441 65.3416 1858.39
-8.32808 66.3722 1887.7
-5.29801 69.6689 1981.46
-5.5814 69.9003 1988.04
-4.86486 71.0811 2021.62
-6.15385 70.3679 2001.34
-6.93333 70.1333 1994.67
-8.18482 69.4389 1974.92
-9.41176 68.7582 1955.56
-11.5016 67.2204 1911.82
-10.684 68.5342 1949.19
-10.7541 68.9836 1961.97
-7.97251 72.3024 2056.36
-5.97865 74.8754 2129.54
-7.57895 73.8246 2099.65
-7.37589 74.6099 2121.99
-3.32075 79.3962 2258.11
-4.77612 78.5075 2232.84
-3.37165 80.613 2292.72
-3.98467 80.613 2292.72
-4.01544 81.2355 2310.42
-5.77947 80 2275.29
-5.25097 81.2355 2310.42
-6.9962 80 2275.29
-7.32824 80.3053 2283.97
-6.53696 81.8677 2328.4
-12.4188 75.9567 2160.29
-14.6479 74.0845 2107.04
-17.415 71.5646 2035.37
-20.5863 68.5342 1949.19
-22.6032 66.7937 1899.68
-23.47 66.3722 1887.7
-25.0155 65.1393 1852.63
-26.0123 64.5399 1835.58
-26.9909 63.9514 1818.84
-27.4772 63.9514 1818.84
-28.2779 63.565 1807.85
-28.7613 63.565 1807.85
-29.2447 63.565 1807.85
-29.8795 63.3735 1802.41
-30.3614 63.3735 1802.41
-30.991 63.1832 1797
-31.4715 63.1832 1797
-32.0958 62.994 1791.62
-32.5749 62.994 1791.62
-33.0539 62.994 1791.62
-33.5329 62.994 1791.62
-34.012 62.994 1791.62
-34.491 62.994 1791.62
-34.9701 62.994 1791.62
-35.4491 62.994 1791.62
-35.9281 62.994 1791.62
-36.4072 62.994 1791.62
-36.8862 62.994 1791.62
-37.3653 62.994 1791.62
-37.8443 62.994 1791.62
-38.3234 62.994 1791.62
-38.8024 62.994 1791.62
-39.2814 62.994 1791.62
-39.7605 62.994 1791.62
-40.2395 62.994 1791.62
-40.7186 62.994 1791.62
-41.1976 62.994 1791.62
-41.6766 62.994 1791.62
-42.1557 62.994 1791.62
-42.6347 62.994 1791.62
-43.1138 62.994 1791.62
-43.5928 62.994 1791.62
-43.964 63.1832 1797
-44.4444 63.1832 1797
-44.9249 63.1832 1797
-45.4054 63.1832 1797
-45.8859 63.1832 1797
-46.3664 63.1832 1797
-46.8468 63.1832 1797
-47.3273 63.1832 1797
-47.8078 63.1832 1797
-48.2883 63.1832 1797
-48.7688 63.1832 1797
-49.2492 63.1832 1797
-49.7297 63.1832 1797
-50.2102 63.1832 1797
-50.6907 63.1832 1797
-51.1712 63.1832 1797
-51.6517 63.1832 1797
-52.1321 63.1832 1797
-52.6126 63.1832 1797
-53.0931 63.1832 1797
-53.494 63.3735 1802.41
-53.9759 63.3735 1802.41
-54.4578 63.3735 1802.41
-54.864 63.565 1807.85
-55.3474 63.565 1807.85
-55.8308 63.565 1807.85
-56.3142 63.565 1807.85
-56.7976 63.565 1807.85
-57.281 63.565 1807.85
-57.7644 63.565 1807.85
-58.2477 63.565 1807.85
-58.7311 63.565 1807.85
-59.2145 63.565 1807.85
-59.6979 63.565 1807.85
-60.1813 63.565 1807.85
-60.6647 63.565 1807.85
-61.148 63.565 1807.85
-61.6314 63.565 1807.85
-62.1148 63.565 1807.85
-62.5982 63.565 1807.85
-63.0816 63.565 1807.85
-63.565 63.565 1807.85
-64.0483 63.565 1807.85
-64.5317 63.565 1807.85
-65.0151 63.565 1807.85
-65.4985 63.565 1807.85
-65.9819 63.565 1807.85
-66.4653 63.565 1807.85
-66.9486 63.565 1807.85
-67.432 63.565 1807.85
-67.9154 63.565 1807.85
-68.3988 63.565 1807.85
-68.8822 63.565 1807.85
-69.3976 63.3735 1802.41
-69.8795 63.3735 1802.41
-70.3614 63.3735 1802.41
-70.8709 63.1832 1797
-71.3514 63.1832 1797
-71.8318 63.1832 1797
-72.4036 62.4332 1775.67
-72.9204 62.0649 1765.19
-73.4118 61.8824 1760
-73.9003 61.7009 1754.84
-74.386 61.5205 1749.71
-74.8837 61.1628 1739.53
-75.3488 61.1628 1739.53
-75.8261 60.9855 1734.49
-76.2899 60.9855 1734.49
-76.7536 60.9855 1734.49
-77.2174 60.9855 1734.49
-77.6812 60.9855 1734.49
-78.1449 60.9855 1734.49
-78.6087 60.9855 1734.49
-79.0725 60.9855 1734.49
-79.5362 60.9855 1734.49
-80 60.9855 1734.49
-80.4638 60.9855 1734.49
-80.9275 60.9855 1734.49
-81.3953 61.1628 1739.53
-81.8605 61.1628 1739.53
-82.3324 61.3411 1744.61
-82.807 61.5205 1749.71
-83.2845 61.7009 1754.84
-83.787 62.2485 1770.41
-84.2985 62.806 1786.27
-84.8485 63.7576 1813.33
-85.3988 64.5399 1835.58
-86.0188 65.9561 1875.86
-86.6242 67.0064 1905.73
-87.2964 68.5342 1949.19
-87.947 69.6689 1981.46
-88.7973 72.3024 2056.36
-89.3793 72.5517 2063.45
-89.931 72.5517 2063.45
-90.2013 70.604 2008.05
-90.4235 68.5342 1949.19
-90.6667 66.7937 1899.68
-91 65.75 1870
-91.5723 66.1635 1881.76
-91.7431 64.3425 1829.97
-92.1212 63.7576 1813.33
-92.568 63.565 1807.85
-93.0514 63.565 1807.85
-93.4535 63.1832 1797
-93.9339 63.1832 1797
-94.3713 62.994 1791.62
-94.8503 62.994 1791.62
-95.3293 62.994 1791.62
-95.8084 62.994 1791.62
-96.2388 62.806 1786.27
-96.7164 62.806 1786.27
-97.194 62.806 1786.27
-97.6716 62.806 1786.27
-98.1493 62.806 1786.27
-98.6269 62.806 1786.27
-99.1045 62.806 1786.27
-99.5821 62.806 1786.27
-100.06 62.806 1786.27
-100.537 62.806 1786.27
-101.015 62.806 1786.27
-101.493 62.806 1786.27
-101.905 62.619 1780.95
-102.381 62.619 1780.95
-102.857 62.619 1780.95
-103.333 62.619 1780.95
-103.739 62.4332 1775.67
-104.286 62.619 1780.95
-104.688 62.4332 1775.67
-104.941 61.8824 1760
-105.263 61.5205 1749.71
-105.656 61.3411 1744.61
-106.047 61.1628 1739.53
-106.435 60.9855 1734.49
-106.59 60.2865 1714.61
-107.126 60.4598 1719.54
-107.586 60.4598 1719.54
-107.966 60.2865 1714.61
-108.424 60.2865 1714.61
-108.883 60.2865 1714.61
-109.425 60.4598 1719.54
-109.885 60.4598 1719.54
-110.432 60.634 1724.5
-111.716 62.2485 1770.41
-112.87 63.565 1807.85
-114.826 66.3722 1887.7
-116.482 68.5342 1949.19
-117.993 70.3679 2001.34
-117.647 68.7582 1955.56
-123.1 77.6384 2208.12
-126.984 83.4921 2374.6
-129.18 86.2295 2452.46
-131.525 89.1525 2535.59
-136.774 96.9585 2757.6
-135.964 94.3498 2683.41
-137.982 96.5138 2744.95
-138.182 95.6364 2720
-136.594 91.8777 2613.1
-136.797 91.0823 2590.48
-131.077 80.9231 2301.54
-132.913 82.8346 2355.91
-129.635 76.7883 2183.94
-123.544 66.5823 1893.67
-122.054 63.565 1807.85
-121.17 61.5205 1749.71
-121.516 61.3411 1744.61
-121.739 60.9855 1734.49
-122.449 61.3411 1744.61
-123.55 62.2485 1770.41
-124.955 63.565 1807.85
-125.854 64.1463 1824.39
-127.205 65.3416 1858.39
-128.454 66.3722 1887.7
-129.585 67.2204 1911.82
-129.778 66.7937 1899.68
-129.811 66.1635 1881.76
-128.93 64.3425 1829.97
-129.419 64.3425 1829.97
-129.157 63.3735 1802.41
-127.493 60.634 1724.5
-127.816 60.4598 1719.54
-128.138 60.2865 1714.61
-128.319 59.943 1704.84
-128.914 60.1143 1709.71
-129.942 60.8092 1729.48
-130.551 60.9855 1734.49
-131.163 61.1628 1739.53
-131.93 61.5205 1749.71
-132.398 61.5205 1749.71
-133.176 61.8824 1760
-133.49 61.7009 1754.84
-133.959 61.7009 1754.84
-134.588 61.8824 1760
-134.577 61.3411 1744.61
-135.044 61.3411 1744.61
-135.188 60.9855 1734.49
-135.491 60.8092 1729.48
-135.954 60.8092 1729.48
-136.254 60.634 1724.5
-136.715 60.634 1724.5
-137.011 60.4598 1719.54
-137.471 60.4598 1719.54
-137.931 60.4598 1719.54
-138.391 60.4598 1719.54
-139.02 60.634 1724.5
-139.481 60.634 1724.5
-140.116 60.8092 1729.48
-140.754 60.9855 1734.49
-141.395 61.1628 1739.53
-141.681 60.9855 1734.49
-141.787 60.634 1724.5
-142.791 61.1628 1739.53
-142.89 60.8092 1729.48
-143.353 60.8092 1729.48
-143.631 60.634 1724.5
-144.464 60.9855 1734.49
-145.882 61.8824 1760
-147.748 63.1832 1797
-149.908 64.7385 1841.23
-154.286 68.3117 1942.86
-159.448 72.5517 2063.45
-165.609 77.6384 2208.12
-169.16 80.3053 2283.97
-178 87.6667 2493.33
-186.667 94.7748 2695.5
-192.453 99.2453 2822.64
-194.286 100.19 2849.52
-190.826 96.5138 2744.95
-183.051 89.1525 2535.59
-184.17 89.5319 2546.38
-179.355 84.8387 2412.9
-167.324 74.0845 2107.04
-162.376 69.4389 1974.92
-158.746 65.9561 1875.86
-156.606 63.7576 1813.33
-155.044 62.0649 1765.19
-153.775 60.634 1724.5
-152.975 59.6034 1695.18
-152 58.4444 1662.22
-152.444 58.4444 1662.22
-152.486 58.1215 1653.04
-152.727 57.9614 1648.48
-153.168 57.9614 1648.48
-153.812 58.1215 1653.04
-154.46 58.2825 1657.62
-154.696 58.1215 1653.04
-156.19 58.9356 1676.19
-157.07 59.2676 1685.63
-158.182 59.7727 1700
-159.086 60.1143 1709.71
-160.231 60.634 1724.5
-160.925 60.8092 1729.48
-161.86 61.1628 1739.53
-162.566 61.3411 1744.61
-165.015 62.806 1786.27
-164.484 62.0649 1765.19
-165.97 62.806 1786.27
-168.563 64.3425 1829.97
-171.861 66.3722 1887.7
-176.316 69.2105 1968.42
-186.667 76.2319 2168.12
-187.246 76.2319 2168.12
-192.302 79.3962 2258.11
-196.42 81.8677 2328.4
-197.961 82.5098 2346.67
-197.209 81.5504 2319.38
-193.433 78.5075 2232.84
-190.325 75.9567 2160.29
-185.567 72.3024 2056.36
-181.914 69.4389 1974.92
-179.169 67.2204 1911.82
-176 64.7385 1841.23
-173.612 62.806 1786.27
-172.164 61.5205 1749.71
-171.561 60.8092 1729.48
-171.232 60.2865 1714.61
-171.168 59.943 1704.84
-171.624 59.943 1704.84
-172.08 59.943 1704.84
-172.536 59.943 1704.84
-173.257 60.1143 1709.71
-173.714 60.1143 1709.71
-174.441 60.2865 1714.61
-174.9 60.2865 1714.61
-175.632 60.4598 1719.54
-176.092 60.4598 1719.54
-176.83 60.634 1724.5
-177.291 60.634 1724.5
-177.752 60.634 1724.5
-178.213 60.634 1724.5
22.029 61.4493 1734.49
21.5652 61.4493 1734.49
21.1014 61.4493 1734.49
20.6377 61.4493 1734.49
20.1739 61.4493 1734.49
20 61.6279 1739.53
19.5349 61.6279 1739.53
19.0698 61.6279 1739.53
18.6047 61.6279 1739.53
18.1395 61.6279 1739.53
17.6744 61.6279 1739.53
17.4927 61.8076 1744.61
17.0262 61.8076 1744.61
16.5598 61.8076 1744.61
16.0933 61.8076 1744.61
15.6268 61.8076 1744.61
15.4386 61.9883 1749.71
14.9708 61.9883 1749.71
14.5029 61.9883 1749.71
14.3109 62.1701 1754.84
13.8416 62.1701 1754.84
13.6471 62.3529 1760
12.9032 62.1701 1754.84
12.7059 62.3529 1760
12.2353 62.3529 1760
12.0354 62.5369 1765.19
11.5634 62.5369 1765.19
11.0914 62.5369 1765.19
10.6195 62.5369 1765.19
10.1475 62.5369 1765.19
9.67552 62.5369 1765.19
9.46746 62.7219 1770.41
8.99408 62.7219 1770.41
8.52071 62.7219 1770.41
8.04734 62.7219 1770.41
7.83383 62.908 1775.67
7.10059 62.7219 1770.41
6.88427 62.908 1775.67
6.4095 62.908 1775.67
5.93472 62.908 1775.67
5.71429 63.0952 1780.95
5.2381 63.0952 1780.95
4.7619 63.0952 1780.95
4.28571 63.0952 1780.95
4.0597 63.2836 1786.27
3.58209 63.2836 1786.27
3.10448 63.2836 1786.27
2.87425 63.4731 1791.62
2.39521 63.4731 1791.62
1.91617 63.4731 1791.62
1.43713 63.4731 1791.62
1.2012 63.6637 1797
0.720721 63.6637 1797
0.24024 63.6637 1797
-0.24024 63.6637 1797
-0.720721 63.6637 1797
-0.963855 63.8554 1802.41
-1.44578 63.8554 1802.41
-1.69184 64.0483 1807.85
-2.17523 64.0483 1807.85
-2.65861 64.0483 1807.85
-2.90909 64.2424 1813.33
-3.39394 64.2424 1813.33
-3.87879 64.2424 1813.33
-4.36364 64.2424 1813.33
-4.84848 64.2424 1813.33
-5.10638 64.4377 1818.84
-5.59271 64.4377 1818.84
-6.07903 64.4377 1818.84
-6.56535 64.4377 1818.84
-7.05167 64.4377 1818.84
-7.53799 64.4377 1818.84
-8.02432 64.4377 1818.84
-8.51064 64.4377 1818.84
-8.99696 64.4377 1818.84
-9.26829 64.6341 1824.39
-9.32515 65.0307 1835.58
-8.9441 65.8385 1858.39
-7.87302 67.3016 1899.68
-5.04983 70.4319 1988.04
-2.49135 73.3564 2070.59
-4.35374 72.1088 2035.37
-3.86207 73.1034 2063.45
-4.93151 72.6027 2049.32
-6.73401 71.3805 2014.81
-8 70.6667 1994.67
-9.24092 69.967 1974.92
-10.4575 69.281 1955.56
-8.88889 71.3805 2014.81
-10.8251 69.967 1974.92
-8.76712 72.6027 2049.32
-6.28571 75.7143 2137.14
-8.88889 73.6111 2077.78
-8.70175 74.386 2099.65
-5.05576 78.8104 2224.54
-6.47059 77.9412 2200
-7.59124 77.3723 2183.94
-7.38007 78.2288 2208.12
-8.75912 77.3723 2183.94
-9.08425 77.6557 2191.94
-9.92701 77.3723 2183.94
-11.0145 76.8116 2168.12
-11.5942 76.8116 2168.12
-14.0845 74.6479 2107.04
-17.2973 71.6216 2021.62
-18.6667 70.6667 1994.67
-20.5863 69.0554 1949.19
-22.0513 67.9487 1917.95
-24.5201 65.6347 1852.63
-25.3538 65.2308 1841.23
-26.0123 65.0307 1835.58
-26.8293 64.6341 1824.39
-26.6667 65.4321 1846.91
-28.1212 64.2424 1813.33
-28.4498 64.4377 1818.84
-28.9362 64.4377 1818.84
-29.7281 64.0483 1807.85
-30.5105 63.6637 1797
-30.991 63.6637 1797
-31.4715 63.6637 1797
-32.0958 63.4731 1791.62
-32.5749 63.4731 1791.62
-33.0539 63.4731 1791.62
-33.5329 63.4731 1791.62
-34.012 63.4731 1791.62
-34.491 63.4731 1791.62
-34.9701 63.4731 1791.62
-35.4491 63.4731 1791.62
-35.9281 63.4731 1791.62
-36.4072 63.4731 1791.62
-36.8862 63.4731 1791.62
-37.3653 63.4731 1791.62
-37.8443 63.4731 1791.62
-38.3234 63.4731 1791.62
-38.8024 63.4731 1791.62
-39.2814 63.4731 1791.62
-39.7605 63.4731 1791.62
-40.2395 63.4731 1791.62
-40.7186 63.4731 1791.62
-41.1976 63.4731 1791.62
-41.6766 63.4731 1791.62
-42.1557 63.4731 1791.62
-42.6347 63.4731 1791.62
-43.1138 63.4731 1791.62
-43.5928 63.4731 1791.62
-44.0719 63.4731 1791.62
-44.5509 63.4731 1791.62
-45.0299 63.4731 1791.62
-45.509 63.4731 1791.62
-45.988 63.4731 1791.62
-46.4671 63.4731 1791.62
-46.9461 63.4731 1791.62
-47.4251 63.4731 1791.62
-47.9042 63.4731 1791.62
-48.3832 63.4731 1791.62
-48.8623 63.4731 1791.62
-49.2492 63.6637 1797
-49.7297 63.6637 1797
-50.2102 63.6637 1797
-50.6907 63.6637 1797
-51.1712 63.6637 1797
-51.6517 63.6637 1797
-52.1321 63.6637 1797
-52.6126 63.6637 1797
-53.012 63.8554 1802.41
-53.494 63.8554 1802.41
-53.9759 63.8554 1802.41
-54.4578 63.8554 1802.41
-54.864 64.0483 1807.85
-55.3474 64.0483 1807.85
-55.8308 64.0483 1807.85
-56.3142 64.0483 1807.85
-56.7976 64.0483 1807.85
-57.281 64.0483 1807.85
-57.7644 64.0483 1807.85
-58.2477 64.0483 1807.85
-58.7311 64.0483 1807.85
-59.2145 64.0483 1807.85
-59.6979 64.0483 1807.85
-60.1813 64.0483 1807.85
-60.6647 64.0483 1807.85
-61.148 64.0483 1807.85
-61.6314 64.0483 1807.85
-62.1148 64.0483 1807.85
-62.5982 64.0483 1807.85
-63.0816 64.0483 1807.85
-63.565 64.0483 1807.85
-64.0483 64.0483 1807.85
-64.5317 64.0483 1807.85
-65.0151 64.0483 1807.85
-65.4985 64.0483 1807.85
-65.9819 64.0483 1807.85
-66.4653 64.0483 1807.85
-66.9486 64.0483 1807.85
-67.432 64.0483 1807.85
-67.9154 64.0483 1807.85
-68.3988 64.0483 1807.85
-68.8822 64.0483 1807.85
-69.3656 64.0483 1807.85
-69.8795 63.8554 1802.41
-70.3614 63.8554 1802.41
-70.8709 63.6637 1797
-71.3253 63.8554 1802.41
-71.9048 63.0952 1780.95
-72.4036 62.908 1775.67
-72.8994 62.7219 1770.41
-73.4118 62.3529 1760
-73.8824 62.3529 1760
-74.386 61.9883 1749.71
-74.8837 61.6279 1739.53
-75.3488 61.6279 1739.53
-75.8261 61.4493 1734.49
-76.2899 61.4493 1734.49
-76.7536 61.4493 1734.49
-77.2174 61.4493 1734.49
-77.6812 61.4493 1734.49
-78.1449 61.4493 1734.49
-78.6087 61.4493 1734.49
-79.0725 61.4493 1734.49
-79.5362 61.4493 1734.49
-80 61.4493 1734.49
-80.4638 61.4493 1734.49
-80.9275 61.4493 1734.49
-81.3953 61.6279 1739.53
-81.8605 61.6279 1739.53
-82.3324 61.8076 1744.61
-82.8152 62.1701 1754.84
-83.2941 62.3529 1760
-83.7758 62.5369 1765.19
-84.3114 63.4731 1791.62
-84.8485 64.2424 1813.33
-85.4321 65.4321 1846.91
-85.8537 64.6341 1824.39
-86.7314 68.6084 1936.57
-87.4172 70.1987 1981.46
-88.1081 71.6216 2021.62
-89.0141 74.6479 2107.04
-89.6797 75.4448 2129.54
-90.1053 74.386 2099.65
-90.6294 74.1259 2092.31
-91.0727 73.3564 2070.59
-90.6667 67.3016 1899.68
-91.0692 66.6667 1881.76
-91.3231 65.2308 1841.23
-91.7073 64.6341 1824.39
-92.1212 64.2424 1813.33
-92.5301 63.8554 1802.41
-92.973 63.6637 1797
-93.4535 63.6637 1797
-93.8922 63.4731 1791.62
-94.3713 63.4731 1791.62
-94.8503 63.4731 1791.62
-95.3293 63.4731 1791.62
-95.8084 63.4731 1791.62
-96.2388 63.2836 1786.27
-96.7164 63.2836 1786.27
-97.194 63.2836 1786.27
-97.6716 63.2836 1786.27
-98.1493 63.2836 1786.27
-98.6269 63.2836 1786.27
-99.1045 63.2836 1786.27
-99.5821 63.2836 1786.27
-100.06 63.2836 1786.27
-100.537 63.2836 1786.27
-101.015 63.2836 1786.27
-101.493 63.2836 1786.27
-101.97 63.2836 1786.27
-102.381 63.0952 1780.95
-102.857 63.0952 1780.95
-103.333 63.0952 1780.95
-103.739 62.908 1775.67
-104.286 63.0952 1780.95
-104.543 62.5369 1765.19
-105.089 62.7219 1770.41
-105.263 61.9883 1749.71
-105.656 61.8076 1744.61
-106.047 61.6279 1739.53
-106.435 61.4493 1734.49
-106.744 61.0951 1724.5
-107.126 60.9195 1719.54
-107.586 60.9195 1719.54
-107.966 60.745 1714.61
-108.424 60.745 1714.61
-108.966 60.9195 1719.54
-109.51 61.0951 1724.5
-110.145 61.4493 1734.49
-111.15 62.5369 1765.19
-112.192 63.6637 1797
-113.789 65.8385 1858.39
-115.844 68.8312 1942.86
-117.71 71.3805 2014.81
-120.141 74.9117 2114.49
-122.825 78.8104 2224.54
-126.534 84.4622 2384.06
-129.54 88.7029 2503.77
-131.064 90.2128 2546.38
-133.333 92.9825 2624.56
-138.389 100.474 2836.02
-139.147 100.474 2836.02
-139.623 100 2822.64
-140.094 99.5305 2809.39
-136.842 92.9825 2624.56
-138.053 93.8053 2647.79
-135.565 88.7029 2503.77
-129.051 77.3723 2183.94
-129.097 76.5343 2160.29
-126.644 71.8644 2028.47
-122.31 64.4377 1818.84
-121.412 62.3529 1760
-121.395 61.6279 1739.53
-121.86 61.6279 1739.53
-122.824 62.3529 1760
-124.204 63.6637 1797
-125.366 64.6341 1824.39
-128.831 68.8312 1942.86
-128.718 67.9487 1917.95
-130.033 69.0554 1949.19
-132.432 71.6216 2021.62
-131.242 69.281 1955.56
-131.097 68.3871 1930.32
-129.689 65.8385 1858.39
-130.343 66.0436 1864.17
-129.455 64.2424 1813.33
-127.493 61.0951 1724.5
-127.679 60.745 1714.61
-128.138 60.745 1714.61
-128.319 60.3989 1704.84
-128.775 60.3989 1704.84
-129.371 60.5714 1709.71
-129.971 60.745 1714.61
-130.72 61.0951 1724.5
-131.034 60.9195 1719.54
-131.942 61.4493 1734.49
-132.558 61.6279 1739.53
-133.178 61.8076 1744.61
-133.488 61.6279 1739.53
-134.269 61.9883 1749.71
-134.419 61.6279 1739.53
-134.884 61.6279 1739.53
-135.188 61.4493 1734.49
-135.652 61.4493 1734.49
-135.954 61.2717 1729.48
-136.416 61.2717 1729.48
-136.715 61.0951 1724.5
-137.176 61.0951 1724.5
-137.637 61.0951 1724.5
-138.098 61.0951 1724.5
-138.728 61.2717 1729.48
-139.362 61.4493 1734.49
-139.653 61.2717 1729.48
-140.819 61.9883 1749.71
-141.647 62.3529 1760
-141.395 61.6279 1739.53
-141.326 61.0951 1724.5
-143.62 62.908 1775.67
-142.791 61.6279 1739.53
-143.256 61.6279 1739.53
-144.282 62.1701 1754.84
-144.186 61.6279 1739.53
-145.605 62.5369 1765.19
-146.866 63.2836 1786.27
-150.062 65.8385 1858.39
-151.899 67.0886 1893.67
-157.037 71.3805 2014.81
-161.413 74.9117 2114.49
-167.218 79.6992 2249.62
-174.959 86.1789 2432.52
-182.261 92.1739 2601.74
-185.244 94.2222 2659.56
-192.453 100 2822.64
-193.744 100.474 2836.02
-191.336 97.6959 2757.6
-187.137 93.3921 2636.12
-179.918 86.5306 2442.45
-175.875 82.4903 2328.4
-165.813 73.3564 2070.59
-163.2 70.6667 1994.67
-154.985 63.2836 1786.27
-154.135 62.1701 1754.84
-154.824 62.3529 1760
-152.934 60.3989 1704.84
-152.157 59.3838 1676.19
-152 58.8889 1662.22
-152.444 58.8889 1662.22
-152.287 58.4022 1648.48
-152.727 58.4022 1648.48
-153.168 58.4022 1648.48
-153.609 58.4022 1648.48
-154.05 58.4022 1648.48
-154.696 58.5635 1653.04
-155.346 58.7258 1657.62
-156.425 59.2179 1671.51
-156.872 59.2179 1671.51
-157.972 59.7183 1685.63
-159.543 60.5714 1709.71
-160 60.5714 1709.71
-160.92 60.9195 1719.54
-161.85 61.2717 1729.48
-163.032 61.8076 1744.61
-163.743 61.9883 1749.71
-165.46 62.908 1775.67
-168.563 64.8318 1829.97
-172.152 67.0886 1893.67
-176.634 69.967 1974.92
-182.222 73.6111 2077.78
-189.225 78.2288 2208.12
-194.903 81.8533 2310.42
-210.087 92.1739 2601.74
-208.547 90.5983 2557.26
-205.477 87.9668 2482.99
-201.116 84.4622 2384.06
-196.641 80.916 2283.97
-191.304 76.8116 2168.12
-186.483 73.1034 2063.45
-182.105 69.7368 1968.42
-178.423 66.877 1887.7
-175.61 64.6341 1824.39
-173.81 63.0952 1780.95
-172.362 61.8076 1744.61
-172.023 61.2717 1729.48
-171.691 60.745 1714.61
-171.886 60.5714 1709.71
-172.343 60.5714 1709.71
-172.8 60.5714 1709.71
-173.524 60.745 1714.61
-173.983 60.745 1714.61
-174.713 60.9195 1719.54
-175.447 61.0951 1724.5
-175.908 61.0951 1724.5
-176.369 61.0951 1724.5
-176.83 61.0951 1724.5
-177.291 61.0951 1724.5
-177.752 61.0951 1724.5
-178.213 61.0951 1724.5
21.7341 61.7341 1729.48
21.2717 61.7341 1729.48
21.1014 61.913 1734.49
20.6377 61.913 1734.49
20.1739 61.913 1734.49
19.7101 61.913 1734.49
19.2464 61.913 1734.49
19.0698 62.093 1739.53
18.6047 62.093 1739.53
18.1395 62.093 1739.53
17.6744 62.093 1739.53
17.4927 62.2741 1744.61
17.0262 62.2741 1744.61
16.5598 62.2741 1744.61
16.0933 62.2741 1744.61
15.6268 62.2741 1744.61
15.4386 62.4561 1749.71
14.9708 62.4561 1749.71
14.5029 62.4561 1749.71
14.3109 62.6393 1754.84
13.8416 62.6393 1754.84
13.3724 62.6393 1754.84
13.1765 62.8235 1760
12.7059 62.8235 1760
12.2353 62.8235 1760
11.7647 62.8235 1760
11.2941 62.8235 1760
11.0914 63.0088 1765.19
10.6195 63.0088 1765.19
10.1475 63.0088 1765.19
9.67552 63.0088 1765.19
9.46746 63.1953 1770.41
8.99408 63.1953 1770.41
8.25959 63.0088 1765.19
8.04734 63.1953 1770.41
7.57396 63.1953 1770.41
7.10059 63.1953 1770.41
6.62722 63.1953 1770.41
6.4095 63.3828 1775.67
5.93472 63.3828 1775.67
5.71429 63.5714 1780.95
5.2381 63.5714 1780.95
4.7619 63.5714 1780.95
4.53731 63.7612 1786.27
4.0597 63.7612 1786.27
3.58209 63.7612 1786.27
3.10448 63.7612 1786.27
2.87425 63.9521 1791.62
2.39521 63.9521 1791.62
1.91617 63.9521 1791.62
1.43713 63.9521 1791.62
0.958084 63.9521 1791.62
0.479042 63.9521 1791.62
0.24024 64.1441 1797
-0.24024 64.1441 1797
-0.481928 64.3373 1802.41
-0.963855 64.3373 1802.41
-1.44578 64.3373 1802.41
-1.69184 64.5317 1807.85
-2.17523 64.5317 1807.85
-2.65861 64.5317 1807.85
-3.14199 64.5317 1807.85
-3.39394 64.7273 1813.33
-3.87879 64.7273 1813.33
-4.36364 64.7273 1813.33
-4.84848 64.7273 1813.33
-5.10638 64.924 1818.84
-5.59271 64.924 1818.84
-6.07903 64.924 1818.84
-6.56535 64.924 1818.84
-7.05167 64.924 1818.84
-7.53799 64.924 1818.84
-8.02432 64.924 1818.84
-8.51064 64.924 1818.84
-8.99696 64.924 1818.84
-9.26829 65.122 1824.39
-9.32515 65.5215 1835.58
-9.81595 65.5215 1835.58
-6.94534 68.6817 1924.12
0.284698 76.0142 2129.54
-1.12676 75.2113 2107.04
0.872727 77.6727 2176
-0.57554 76.8345 2152.52
-3.08772 74.9474 2099.65
-4.96552 73.6552 2063.45
-7.27273 71.9192 2014.81
-9.93464 69.8039 1955.56
-10.684 69.5765 1949.19
-11.6505 69.1262 1936.57
-11.5033 69.8039 1955.56
-10.6667 71.2 1994.67
-12.3279 70.0328 1961.97
-10.5763 72.4068 2028.47
-11.8121 71.6779 2008.05
-8.76325 75.477 2114.49
-9.32862 75.477 2114.49
-9.89399 75.477 2114.49
-11.6667 74.1667 2077.78
-12.4567 73.91 2070.59
-12.5436 74.4251 2085.02
-12.3944 75.2113 2107.04
-13.6585 74.4251 2085.02
-16.431 71.9192 2014.81
-18.0132 70.7285 1981.46
-18.3389 70.9635 1988.04
-19.6721 70.0328 1961.97
-21.5385 68.4615 1917.95
-22.4204 68.0255 1905.73
-24.1745 66.5421 1864.17
-25.3538 65.7231 1841.23
-25.1713 66.5421 1864.17
-26.1728 65.9259 1846.91
-25.8307 66.9592 1875.86
-26.6667 66.5421 1864.17
-28.1346 65.3211 1829.97
-29.2447 64.5317 1807.85
-29.2683 65.122 1824.39
-30.3614 64.3373 1802.41
-30.8434 64.3373 1802.41
-31.3253 64.3373 1802.41
-31.952 64.1441 1797
-32.5749 63.9521 1791.62
-33.0539 63.9521 1791.62
-33.5329 63.9521 1791.62
-34.012 63.9521 1791.62
-34.491 63.9521 1791.62
-34.9701 63.9521 1791.62
-35.4491 63.9521 1791.62
-35.9281 63.9521 1791.62
-36.4072 63.9521 1791.62
-36.8862 63.9521 1791.62
-37.3653 63.9521 1791.62
-37.8443 63.9521 1791.62
-38.3234 63.9521 1791.62
-38.8024 63.9521 1791.62
-39.2814 63.9521 1791.62
-39.8806 63.7612 1786.27
-40.3582 63.7612 1786.27
-40.7186 63.9521 1791.62
-41.1976 63.9521 1791.62
-41.6766 63.9521 1791.62
-42.1557 63.9521 1791.62
-42.6347 63.9521 1791.62
-43.1138 63.9521 1791.62
-43.5928 63.9521 1791.62
-44.0719 63.9521 1791.62
-44.5509 63.9521 1791.62
-45.0299 63.9521 1791.62
-45.509 63.9521 1791.62
-45.988 63.9521 1791.62
-46.4671 63.9521 1791.62
-46.9461 63.9521 1791.62
-47.4251 63.9521 1791.62
-47.9042 63.9521 1791.62
-48.3832 63.9521 1791.62
-48.8623 63.9521 1791.62
-49.3413 63.9521 1791.62
-49.8204 63.9521 1791.62
-50.2102 64.1441 1797
-50.6907 64.1441 1797
-51.1712 64.1441 1797
-51.6517 64.1441 1797
-52.1321 64.1441 1797
-52.6126 64.1441 1797
-53.012 64.3373 1802.41
-53.494 64.3373 1802.41
-53.9759 64.3373 1802.41
-54.4578 64.3373 1802.41
-54.864 64.5317 1807.85
-55.3474 64.5317 1807.85
-55.8308 64.5317 1807.85
-56.3142 64.5317 1807.85
-56.7976 64.5317 1807.85
-57.281 64.5317 1807.85
-57.7644 64.5317 1807.85
-58.2477 64.5317 1807.85
-58.7311 64.5317 1807.85
-59.2145 64.5317 1807.85
-59.6979 64.5317 1807.85
-60.1813 64.5317 1807.85
-60.6647 64.5317 1807.85
-61.148 64.5317 1807.85
-61.6314 64.5317 1807.85
-62.1148 64.5317 1807.85
-62.5982 64.5317 1807.85
-63.0816 64.5317 1807.85
-63.565 64.5317 1807.85
-64.0483 64.5317 1807.85
-64.5317 64.5317 1807.85
-65.0151 64.5317 1807.85
-65.4985 64.5317 1807.85
-65.9819 64.5317 1807.85
-66.4653 64.5317 1807.85
-66.9486 64.5317 1807.85
-67.432 64.5317 1807.85
-67.9154 64.5317 1807.85
-68.3988 64.5317 1807.85
-68.8822 64.5317 1807.85
-69.3976 64.3373 1802.41
-69.8489 64.5317 1807.85
-70.3614 64.3373 1802.41
-70.8709 64.1441 1797
-71.3772 63.9521 1791.62
-71.8806 63.7612 1786.27
-72.4036 63.3828 1775.67
-72.9204 63.0088 1765.19
-73.4118 62.8235 1760
-73.8824 62.8235 1760
-74.386 62.4561 1749.71
-74.8837 62.093 1739.53
-75.3623 61.913 1734.49
-75.8261 61.913 1734.49
-76.2899 61.913 1734.49
-76.7536 61.913 1734.49
-77.2174 61.913 1734.49
-77.6812 61.913 1734.49
-78.1449 61.913 1734.49
-78.6087 61.913 1734.49
-79.0725 61.913 1734.49
-79.5362 61.913 1734.49
-80 61.913 1734.49
-80.4651 62.093 1739.53
-80.9302 62.093 1739.53
-81.3994 62.2741 1744.61
-81.8659 62.2741 1744.61
-82.3392 62.4561 1749.71
-82.8152 62.6393 1754.84
-83.3038 63.0088 1765.19
