-193.41 -84.2912 2292.72
-194.023 -84.2912 2292.72
-194.636 -84.2912 2292.72
-195.249 -84.2912 2292.72
-195.862 -84.2912 2292.72
-196.475 -84.2912 2292.72
-197.088 -84.2912 2292.72
-197.701 -84.2912 2292.72
-198.314 -84.2912 2292.72
-198.927 -84.2912 2292.72
-199.54 -84.2912 2292.72
-200.153 -84.2912 2292.72
-200.766 -84.2912 2292.72
-201.379 -84.2912 2292.72
-201.992 -84.2912 2292.72
-202.605 -84.2912 2292.72
-203.218 -84.2912 2292.72
-203.831 -84.2912 2292.72
-204.444 -84.2912 2292.72
-205.538 -84.6154 2301.54
-205.67 -84.2912 2292.72
-206.284 -84.2912 2292.72
-207.385 -84.6154 2301.54
-207.51 -84.2912 2292.72
-208.615 -84.6154 2301.54
-208.736 -84.2912 2292.72
-209.349 -84.2912 2292.72
-209.962 -84.2912 2292.72
-210.575 -84.2912 2292.72
41.3793 -75.3103 2063.45
40.4124 -75.0515 2056.36
40.692 -75.5709 2070.59
40.1384 -75.5709 2070.59
39.5848 -75.5709 2070.59
39.4444 -75.8333 2077.78
38.8889 -75.8333 2077.78
38.3333 -75.8333 2077.78
37.7778 -75.8333 2077.78
37.2222 -75.8333 2077.78
36.6667 -75.8333 2077.78
36.5157 -76.0976 2085.02
35.9582 -76.0976 2085.02
35.4007 -76.0976 2085.02
34.8432 -76.0976 2085.02
34.2857 -76.0976 2085.02
33.7282 -76.0976 2085.02
33.1707 -76.0976 2085.02
32.6132 -76.0976 2085.02
32.0557 -76.0976 2085.02
31.4983 -76.0976 2085.02
30.9408 -76.0976 2085.02
30.7692 -76.3636 2092.31
30.2098 -76.3636 2092.31
29.6503 -76.3636 2092.31
29.0909 -76.3636 2092.31
28.5315 -76.3636 2092.31
27.972 -76.3636 2092.31
27.4126 -76.3636 2092.31
26.8531 -76.3636 2092.31
26.2937 -76.3636 2092.31
26.1053 -76.6316 2099.65
25.5439 -76.6316 2099.65
24.9825 -76.6316 2099.65
24.4211 -76.6316 2099.65
23.8596 -76.6316 2099.65
23.2982 -76.6316 2099.65
22.7368 -76.6316 2099.65
22.5352 -76.9014 2107.04
21.9718 -76.9014 2107.04
21.4085 -76.9014 2107.04
20.8451 -76.9014 2107.04
20.2817 -76.9014 2107.04
19.7183 -76.9014 2107.04
19.1549 -76.9014 2107.04
18.5915 -76.9014 2107.04
18.0282 -76.9014 2107.04
17.8092 -77.1731 2114.49
17.2438 -77.1731 2114.49
16.6784 -77.1731 2114.49
16.1131 -77.1731 2114.49
15.5477 -77.1731 2114.49
14.9823 -77.1731 2114.49
14.417 -77.1731 2114.49
13.8516 -77.1731 2114.49
13.2862 -77.1731 2114.49
13.0496 -77.4468 2121.99
12.4823 -77.4468 2121.99
11.9149 -77.4468 2121.99
11.3475 -77.4468 2121.99
10.7801 -77.4468 2121.99
10.2128 -77.4468 2121.99
9.64539 -77.4468 2121.99
9.39502 -77.7224 2129.54
8.82562 -77.7224 2129.54
8.25623 -77.7224 2129.54
7.68683 -77.7224 2129.54
7.11744 -77.7224 2129.54
6.54804 -77.7224 2129.54
5.97865 -77.7224 2129.54
5.40925 -77.7224 2129.54
4.83986 -77.7224 2129.54
4.57143 -78 2137.14
4 -78 2137.14
3.42857 -78 2137.14
2.85714 -78 2137.14
2.28571 -78 2137.14
1.71429 -78 2137.14
1.14286 -78 2137.14
0.571429 -78 2137.14
0.286738 -78.2796 2144.8
-0.286738 -78.2796 2144.8
-0.860215 -78.2796 2144.8
-1.43369 -78.2796 2144.8
-2.00717 -78.2796 2144.8
-2.58065 -78.2796 2144.8
-3.15412 -78.2796 2144.8
-3.7276 -78.2796 2144.8
-4.02878 -78.5612 2152.52
-4.60432 -78.5612 2152.52
-5.17986 -78.5612 2152.52
-5.7554 -78.5612 2152.52
-6.33094 -78.5612 2152.52
-6.90647 -78.5612 2152.52
-7.48201 -78.5612 2152.52
-8.05755 -78.5612 2152.52
-8.63309 -78.5612 2152.52
-8.95307 -78.8448 2160.29
-9.53069 -78.8448 2160.29
-10.1083 -78.8448 2160.29
-10.6859 -78.8448 2160.29
-11.2635 -78.8448 2160.29
-11.8412 -78.8448 2160.29
-12.4188 -78.8448 2160.29
-12.9964 -78.8448 2160.29
-13.574 -78.8448 2160.29
-13.913 -79.1304 2168.12
-14.4928 -79.1304 2168.12
-15.0725 -79.1304 2168.12
-15.6522 -79.1304 2168.12
-16.2319 -79.1304 2168.12
-16.8116 -79.1304 2168.12
-17.1636 -79.4182 2176
-17.7455 -79.4182 2176
-18.3273 -79.4182 2176
-18.9091 -79.4182 2176
-19.4909 -79.4182 2176
-20.0727 -79.4182 2176
-20.6545 -79.4182 2176
-21.2364 -79.4182 2176
-21.8182 -79.4182 2176
-22.4 -79.4182 2176
-22.7737 -79.708 2183.94
-23.3577 -79.708 2183.94
-23.9416 -79.708 2183.94
-24.5255 -79.708 2183.94
-25.1095 -79.708 2183.94
-25.6934 -79.708 2183.94
-26.2774 -79.708 2183.94
-26.6667 -80 2191.94
-27.2527 -80 2191.94
-27.8388 -80 2191.94
-28.4249 -80 2191.94
-29.011 -80 2191.94
-29.5971 -80 2191.94
-30.1832 -80 2191.94
-30.7692 -80 2191.94
-31.3553 -80 2191.94
-31.7647 -80.2941 2200
-32.3529 -80.2941 2200
-32.9412 -80.2941 2200
-33.5294 -80.2941 2200
-34.1176 -80.2941 2200
-34.7059 -80.2941 2200
-35.1292 -80.5904 2208.12
-35.8824 -80.2941 2200
-36.31 -80.5904 2208.12
-36.9004 -80.5904 2208.12
-37.4908 -80.5904 2208.12
-38.0812 -80.5904 2208.12
-38.6716 -80.5904 2208.12
-39.262 -80.5904 2208.12
-39.8524 -80.5904 2208.12
-40.4428 -80.5904 2208.12
-40.8889 -80.8889 2216.3
-41.4815 -80.8889 2216.3
-42.0741 -80.8889 2216.3
-42.6667 -80.8889 2216.3
-43.2593 -80.8889 2216.3
-43.8519 -80.8889 2216.3
-44.4444 -80.8889 2216.3
-45.037 -80.8889 2216.3
-45.6296 -80.8889 2216.3
-46.0967 -81.1896 2224.54
-46.6914 -81.1896 2224.54
-47.2862 -81.1896 2224.54
-47.881 -81.1896 2224.54
-48.4758 -81.1896 2224.54
-49.0706 -81.1896 2224.54
-49.6654 -81.1896 2224.54
-50.2602 -81.1896 2224.54
-50.855 -81.1896 2224.54
-51.3433 -81.4925 2232.84
-51.9403 -81.4925 2232.84
-52.5373 -81.4925 2232.84
-53.1343 -81.4925 2232.84
-53.7313 -81.4925 2232.84
-54.3284 -81.4925 2232.84
-54.9254 -81.4925 2232.84
-55.5224 -81.4925 2232.84
-56.03 -81.7978 2241.2
-56.6292 -81.7978 2241.2
-57.2285 -81.7978 2241.2
-57.8277 -81.7978 2241.2
-58.427 -81.7978 2241.2
-59.0262 -81.7978 2241.2
-59.6255 -81.7978 2241.2
-60.2247 -81.7978 2241.2
-60.7519 -82.1053 2249.62
-61.3534 -82.1053 2249.62
-61.9549 -82.1053 2249.62
-62.5564 -82.1053 2249.62
-63.1579 -82.1053 2249.62
-63.7594 -82.1053 2249.62
-64.3609 -82.1053 2249.62
-64.9624 -82.1053 2249.62
-65.5094 -82.4151 2258.11
-66.1132 -82.4151 2258.11
-66.717 -82.4151 2258.11
-67.3208 -82.4151 2258.11
-67.8788 -82.7273 2266.67
-68.4411 -83.0418 2275.29
-69.0494 -83.0418 2275.29
-69.6183 -83.3588 2283.97
-70.1916 -83.6782 2292.72
-70.8046 -83.6782 2292.72
-71.4176 -83.6782 2292.72
-72.0307 -83.6782 2292.72
-72.6437 -83.6782 2292.72
-73.2567 -83.6782 2292.72
-73.8697 -83.6782 2292.72
-74.4828 -83.6782 2292.72
-75.0958 -83.6782 2292.72
-75.7088 -83.6782 2292.72
-76.3218 -83.6782 2292.72
-76.9349 -83.6782 2292.72
-77.5479 -83.6782 2292.72
-78.1609 -83.6782 2292.72
-78.7739 -83.6782 2292.72
-79.387 -83.6782 2292.72
-80 -83.6782 2292.72
-80.613 -83.6782 2292.72
-81.2261 -83.6782 2292.72
-81.8391 -83.6782 2292.72
-82.4521 -83.6782 2292.72
-83.0651 -83.6782 2292.72
-83.6782 -83.6782 2292.72
-84.2912 -83.6782 2292.72
-84.9042 -83.6782 2292.72
-85.5172 -83.6782 2292.72
-86.1303 -83.6782 2292.72
-86.7433 -83.6782 2292.72
-87.3563 -83.6782 2292.72
-87.9693 -83.6782 2292.72
-88.5824 -83.6782 2292.72
-89.1954 -83.6782 2292.72
-89.8084 -83.6782 2292.72
-90.4215 -83.6782 2292.72
-91.0345 -83.6782 2292.72
-91.6475 -83.6782 2292.72
-92.2605 -83.6782 2292.72
-92.8736 -83.6782 2292.72
-93.4866 -83.6782 2292.72
-94.0996 -83.6782 2292.72
-94.7126 -83.6782 2292.72
-95.3257 -83.6782 2292.72
-95.9387 -83.6782 2292.72
-96.5517 -83.6782 2292.72
-97.1648 -83.6782 2292.72
-97.7778 -83.6782 2292.72
-98.3908 -83.6782 2292.72
-99.0038 -83.6782 2292.72
-99.6169 -83.6782 2292.72
-100.23 -83.6782 2292.72
-100.843 -83.6782 2292.72
-101.456 -83.6782 2292.72
-102.069 -83.6782 2292.72
-102.682 -83.6782 2292.72
-103.295 -83.6782 2292.72
-103.908 -83.6782 2292.72
-104.521 -83.6782 2292.72
-105.134 -83.6782 2292.72
-105.747 -83.6782 2292.72
-106.36 -83.6782 2292.72
-106.973 -83.6782 2292.72
-107.586 -83.6782 2292.72
-108.199 -83.6782 2292.72
-108.812 -83.6782 2292.72
-109.425 -83.6782 2292.72
-110.038 -83.6782 2292.72
-110.651 -83.6782 2292.72
-111.264 -83.6782 2292.72
-111.877 -83.6782 2292.72
-112.49 -83.6782 2292.72
-113.103 -83.6782 2292.72
-113.716 -83.6782 2292.72
-114.33 -83.6782 2292.72
-114.943 -83.6782 2292.72
-115.556 -83.6782 2292.72
-116.169 -83.6782 2292.72
-116.923 -84 2301.54
-117.538 -84 2301.54
-118.008 -83.6782 2292.72
-118.621 -83.6782 2292.72
-119.234 -83.6782 2292.72
-119.847 -83.6782 2292.72
-120.46 -83.6782 2292.72
-121.073 -83.6782 2292.72
-121.686 -83.6782 2292.72
-122.299 -83.6782 2292.72
-122.912 -83.6782 2292.72
-123.525 -83.6782 2292.72
-124.138 -83.6782 2292.72
-124.751 -83.6782 2292.72
-125.364 -83.6782 2292.72
-125.977 -83.6782 2292.72
-126.59 -83.6782 2292.72
-127.203 -83.6782 2292.72
-127.816 -83.6782 2292.72
-128.429 -83.6782 2292.72
-129.042 -83.6782 2292.72
-129.655 -83.6782 2292.72
-130.268 -83.6782 2292.72
-130.881 -83.6782 2292.72
-131.494 -83.6782 2292.72
-132.107 -83.6782 2292.72
-132.72 -83.6782 2292.72
-133.333 -83.6782 2292.72
-133.946 -83.6782 2292.72
-134.144 -83.0418 2275.29
-134.753 -83.0418 2275.29
-134.737 -82.1053 2249.62
-134.925 -81.4925 2232.84
-134.908 -80.5904 2208.12
-134.891 -79.708 2183.94
-134.874 -78.8448 2160.29
-135.252 -78.5612 2152.52
-135.035 -77.4468 2121.99
-135.801 -77.7224 2129.54
-135.972 -77.1731 2114.49
-136.537 -77.1731 2114.49
-137.509 -77.7224 2129.54
-137.668 -77.1731 2114.49
-138.233 -77.1731 2114.49
-138.799 -77.1731 2114.49
-139.364 -77.1731 2114.49
-139.718 -76.9014 2107.04
-140.07 -76.6316 2099.65
-140.632 -76.6316 2099.65
-141.193 -76.6316 2099.65
-141.754 -76.6316 2099.65
-142.098 -76.3636 2092.31
-142.657 -76.3636 2092.31
-143.217 -76.3636 2092.31
-143.776 -76.3636 2092.31
-144.111 -76.0976 2085.02
-144.669 -76.0976 2085.02
-145.226 -76.0976 2085.02
-145.784 -76.0976 2085.02
-146.341 -76.0976 2085.02
-146.899 -76.0976 2085.02
-147.456 -76.0976 2085.02
-148.014 -76.0976 2085.02
-148.333 -75.8333 2077.78
-148.889 -75.8333 2077.78
-149.444 -75.8333 2077.78
-150 -75.8333 2077.78
-150.556 -75.8333 2077.78
-151.111 -75.8333 2077.78
-151.419 -75.5709 2070.59
-151.972 -75.5709 2070.59
-152.526 -75.5709 2070.59
-153.08 -75.5709 2070.59
-153.633 -75.5709 2070.59
-154.187 -75.5709 2070.59
-154.74 -75.5709 2070.59
-155.294 -75.5709 2070.59
-155.848 -75.5709 2070.59
-156.401 -75.5709 2070.59
-156.955 -75.5709 2070.59
-157.509 -75.5709 2070.59
-158.062 -75.5709 2070.59
-158.616 -75.5709 2070.59
-159.17 -75.5709 2070.59
-159.723 -75.5709 2070.59
-160.277 -75.5709 2070.59
-160.83 -75.5709 2070.59
-161.667 -75.8333 2077.78
-162.222 -75.8333 2077.78
-163.066 -76.0976 2085.02
-163.333 -75.8333 2077.78
-163.889 -75.8333 2077.78
-164.444 -75.8333 2077.78
-165.594 -76.3636 2092.31
-165.854 -76.0976 2085.02
-167.018 -76.6316 2099.65
-168.198 -77.1731 2114.49
-169.395 -77.7224 2129.54
-170.286 -78 2137.14
-171.511 -78.5612 2152.52
-173.091 -79.4182 2176
-174.359 -80 2191.94
-176.357 -81.1896 2224.54
-177.678 -81.7978 2241.2
-178.647 -82.1053 2249.62
-180 -82.7273 2266.67
-180.989 -83.0418 2275.29
-181.985 -83.3588 2283.97
-182.989 -83.6782 2292.72
-183.602 -83.6782 2292.72
-184.215 -83.6782 2292.72
-184.828 -83.6782 2292.72
-185.441 -83.6782 2292.72
-186.054 -83.6782 2292.72
-186.667 -83.6782 2292.72
-187.28 -83.6782 2292.72
-187.893 -83.6782 2292.72
-188.506 -83.6782 2292.72
-189.119 -83.6782 2292.72
-189.732 -83.6782 2292.72
-190.345 -83.6782 2292.72
-190.958 -83.6782 2292.72
-191.571 -83.6782 2292.72
-192.184 -83.6782 2292.72
-192.797 -83.6782 2292.72
-193.41 -83.6782 2292.72
-194.023 -83.6782 2292.72
-194.636 -83.6782 2292.72
-195.249 -83.6782 2292.72
-195.862 -83.6782 2292.72
-196.475 -83.6782 2292.72
-197.088 -83.6782 2292.72
-197.701 -83.6782 2292.72
-198.314 -83.6782 2292.72
-198.927 -83.6782 2292.72
-199.54 -83.6782 2292.72
-200.153 -83.6782 2292.72
-200.766 -83.6782 2292.72
-201.379 -83.6782 2292.72
-201.992 -83.6782 2292.72
-202.605 -83.6782 2292.72
-203.218 -83.6782 2292.72
-203.831 -83.6782 2292.72
-204.444 -83.6782 2292.72
-205.057 -83.6782 2292.72
-205.67 -83.6782 2292.72
-206.769 -84 2301.54
-207.385 -84 2301.54
-208 -84 2301.54
-208.123 -83.6782 2292.72
-208.736 -83.6782 2292.72
-209.349 -83.6782 2292.72
-209.962 -83.6782 2292.72
-210.575 -83.6782 2292.72
38.9189 -73.2432 2021.62
39.1837 -73.7415 2035.37
40.692 -75.0173 2070.59
40.1384 -75.0173 2070.59
39.5848 -75.0173 2070.59
39.0311 -75.0173 2070.59
38.8889 -75.2778 2077.78
38.3333 -75.2778 2077.78
37.7778 -75.2778 2077.78
37.2222 -75.2778 2077.78
36.6667 -75.2778 2077.78
36.5157 -75.5401 2085.02
35.9582 -75.5401 2085.02
35.4007 -75.5401 2085.02
34.8432 -75.5401 2085.02
34.2857 -75.5401 2085.02
33.7282 -75.5401 2085.02
33.5664 -75.8042 2092.31
32.6132 -75.5401 2085.02
32.0557 -75.5401 2085.02
31.4983 -75.5401 2085.02
30.9408 -75.5401 2085.02
30.7692 -75.8042 2092.31
30.2098 -75.8042 2092.31
29.6503 -75.8042 2092.31
29.0909 -75.8042 2092.31
28.5315 -75.8042 2092.31
27.972 -75.8042 2092.31
27.4126 -75.8042 2092.31
26.8531 -75.8042 2092.31
26.2937 -75.8042 2092.31
26.1053 -76.0702 2099.65
25.5439 -76.0702 2099.65
24.9825 -76.0702 2099.65
24.4211 -76.0702 2099.65
23.8596 -76.0702 2099.65
23.2982 -76.0702 2099.65
22.7368 -76.0702 2099.65
22.5352 -76.338 2107.04
21.9718 -76.338 2107.04
21.4085 -76.338 2107.04
20.8451 -76.338 2107.04
20.2817 -76.338 2107.04
19.7183 -76.338 2107.04
19.1549 -76.338 2107.04
18.5915 -76.338 2107.04
18.0282 -76.338 2107.04
17.4648 -76.338 2107.04
17.2438 -76.6078 2114.49
16.6784 -76.6078 2114.49
16.1131 -76.6078 2114.49
15.5477 -76.6078 2114.49
14.9823 -76.6078 2114.49
14.417 -76.6078 2114.49
13.8516 -76.6078 2114.49
13.2862 -76.6078 2114.49
13.0496 -76.8794 2121.99
12.4823 -76.8794 2121.99
11.9149 -76.8794 2121.99
11.3475 -76.8794 2121.99
10.7801 -76.8794 2121.99
10.2128 -76.8794 2121.99
9.64539 -76.8794 2121.99
9.39502 -77.153 2129.54
8.82562 -77.153 2129.54
8.25623 -77.153 2129.54
7.68683 -77.153 2129.54
7.11744 -77.153 2129.54
6.54804 -77.153 2129.54
5.97865 -77.153 2129.54
5.40925 -77.153 2129.54
4.83986 -77.153 2129.54
4.57143 -77.4286 2137.14
4 -77.4286 2137.14
3.42857 -77.4286 2137.14
2.85714 -77.4286 2137.14
2.28571 -77.4286 2137.14
1.71429 -77.4286 2137.14
1.14286 -77.4286 2137.14
0.571429 -77.4286 2137.14
0.286738 -77.7061 2144.8
-0.286738 -77.7061 2144.8
-0.860215 -77.7061 2144.8
-1.43369 -77.7061 2144.8
-2.00717 -77.7061 2144.8
-2.58065 -77.7061 2144.8
-3.15412 -77.7061 2144.8
-3.7276 -77.7061 2144.8
-4.02878 -77.9856 2152.52
-4.60432 -77.9856 2152.52
-5.17986 -77.9856 2152.52
-5.7554 -77.9856 2152.52
-6.33094 -77.9856 2152.52
-6.90647 -77.9856 2152.52
-7.48201 -77.9856 2152.52
-8.05755 -77.9856 2152.52
-8.63309 -77.9856 2152.52
-9.20863 -77.9856 2152.52
-9.53069 -78.2671 2160.29
-10.1083 -78.2671 2160.29
-10.6859 -78.2671 2160.29
-11.2635 -78.2671 2160.29
-11.8412 -78.2671 2160.29
-12.4188 -78.2671 2160.29
-12.7536 -78.5507 2168.12
-13.3333 -78.5507 2168.12
-13.913 -78.5507 2168.12
-14.4928 -78.5507 2168.12
-15.0725 -78.5507 2168.12
-15.6522 -78.5507 2168.12
-16.2319 -78.5507 2168.12
-16.8116 -78.5507 2168.12
-17.3913 -78.5507 2168.12
-17.7455 -78.8364 2176
-18.3273 -78.8364 2176
-18.9091 -78.8364 2176
-19.4909 -78.8364 2176
-20.0727 -78.8364 2176
-20.6545 -78.8364 2176
-21.2364 -78.8364 2176
-21.8182 -78.8364 2176
-22.4 -78.8364 2176
-22.7737 -79.1241 2183.94
-23.3577 -79.1241 2183.94
-23.9416 -79.1241 2183.94
-24.5255 -79.1241 2183.94
-25.1095 -79.1241 2183.94
-25.6934 -79.1241 2183.94
-26.2774 -79.1241 2183.94
-26.8613 -79.1241 2183.94
-27.2527 -79.4139 2191.94
-27.8388 -79.4139 2191.94
-28.4249 -79.4139 2191.94
-29.011 -79.4139 2191.94
-29.5971 -79.4139 2191.94
-30.1832 -79.4139 2191.94
-30.7692 -79.4139 2191.94
-31.3553 -79.4139 2191.94
-31.7647 -79.7059 2200
-32.3529 -79.7059 2200
-32.9412 -79.7059 2200
-33.5294 -79.7059 2200
-34.1176 -79.7059 2200
-34.7059 -79.7059 2200
-35.2941 -79.7059 2200
-35.8824 -79.7059 2200
-36.31 -80 2208.12
-36.9004 -80 2208.12
-37.4908 -80 2208.12
-38.0812 -80 2208.12
-38.6716 -80 2208.12
-39.262 -80 2208.12
-39.8524 -80 2208.12
-40.4428 -80 2208.12
-41.0332 -80 2208.12
-41.4815 -80.2963 2216.3
-42.0741 -80.2963 2216.3
-42.6667 -80.2963 2216.3
-43.2593 -80.2963 2216.3
-43.8519 -80.2963 2216.3
-44.4444 -80.2963 2216.3
-45.037 -80.2963 2216.3
-45.6296 -80.2963 2216.3
-46.0967 -80.5948 2224.54
-46.6914 -80.5948 2224.54
-47.2862 -80.5948 2224.54
-47.881 -80.5948 2224.54
-48.4758 -80.5948 2224.54
-49.0706 -80.5948 2224.54
-49.6654 -80.5948 2224.54
-50.2602 -80.5948 2224.54
-50.855 -80.5948 2224.54
-51.4498 -80.5948 2224.54
-51.9403 -80.8955 2232.84
-52.5373 -80.8955 2232.84
-53.1343 -80.8955 2232.84
-53.7313 -80.8955 2232.84
-54.3284 -80.8955 2232.84
-54.9254 -80.8955 2232.84
-55.5224 -80.8955 2232.84
-56.1194 -80.8955 2232.84
-56.6292 -81.1985 2241.2
-57.2285 -81.1985 2241.2
-57.8277 -81.1985 2241.2
-58.427 -81.1985 2241.2
-59.0262 -81.1985 2241.2
-59.6255 -81.1985 2241.2
-60.2247 -81.1985 2241.2
-60.7519 -81.5038 2249.62
-61.3534 -81.5038 2249.62
-61.9549 -81.5038 2249.62
-62.5564 -81.5038 2249.62
-63.1579 -81.5038 2249.62
-63.7594 -81.5038 2249.62
-64.3609 -81.5038 2249.62
-64.9057 -81.8113 2258.11
-65.5094 -81.8113 2258.11
-66.1132 -81.8113 2258.11
-66.717 -81.8113 2258.11
-67.2727 -82.1212 2266.67
-67.8788 -82.1212 2266.67
-68.4848 -82.1212 2266.67
-69.0494 -82.4335 2275.29
-69.6183 -82.7481 2283.97
-70.229 -82.7481 2283.97
-70.8397 -82.7481 2283.97
-71.4176 -83.0651 2292.72
-72.0307 -83.0651 2292.72
-72.6437 -83.0651 2292.72
-73.2567 -83.0651 2292.72
-73.8697 -83.0651 2292.72
-74.4828 -83.0651 2292.72
-75.0958 -83.0651 2292.72
-75.7088 -83.0651 2292.72
-76.3218 -83.0651 2292.72
-76.9349 -83.0651 2292.72
-77.5479 -83.0651 2292.72
-78.1609 -83.0651 2292.72
-78.7739 -83.0651 2292.72
-79.387 -83.0651 2292.72
-80 -83.0651 2292.72
-80.613 -83.0651 2292.72
-81.2261 -83.0651 2292.72
-81.8391 -83.0651 2292.72
-82.4521 -83.0651 2292.72
-83.0651 -83.0651 2292.72
-83.6782 -83.0651 2292.72
-84.2912 -83.0651 2292.72
-84.9042 -83.0651 2292.72
-85.5172 -83.0651 2292.72
-86.1303 -83.0651 2292.72
-86.7433 -83.0651 2292.72
-87.3563 -83.0651 2292.72
-87.9693 -83.0651 2292.72
-88.5824 -83.0651 2292.72
-89.1954 -83.0651 2292.72
-89.8084 -83.0651 2292.72
-90.4215 -83.0651 2292.72
-91.0345 -83.0651 2292.72
-91.6475 -83.0651 2292.72
-92.2605 -83.0651 2292.72
-92.8736 -83.0651 2292.72
-93.4866 -83.0651 2292.72
-94.0996 -83.0651 2292.72
-94.7126 -83.0651 2292.72
-95.3257 -83.0651 2292.72
-95.9387 -83.0651 2292.72
-96.5517 -83.0651 2292.72
-97.1648 -83.0651 2292.72
-97.7778 -83.0651 2292.72
-98.3908 -83.0651 2292.72
-99.0038 -83.0651 2292.72
-99.6169 -83.0651 2292.72
-100.23 -83.0651 2292.72
-100.843 -83.0651 2292.72
-101.456 -83.0651 2292.72
-102.069 -83.0651 2292.72
-102.682 -83.0651 2292.72
-103.295 -83.0651 2292.72
-103.908 -83.0651 2292.72
-104.521 -83.0651 2292.72
-105.134 -83.0651 2292.72
-105.747 -83.0651 2292.72
-106.36 -83.0651 2292.72
-106.973 -83.0651 2292.72
-107.586 -83.0651 2292.72
-108.199 -83.0651 2292.72
-108.812 -83.0651 2292.72
-109.425 -83.0651 2292.72
-110.038 -83.0651 2292.72
-110.651 -83.0651 2292.72
-111.264 -83.0651 2292.72
-111.877 -83.0651 2292.72
-112.49 -83.0651 2292.72
-113.103 -83.0651 2292.72
-113.716 -83.0651 2292.72
-114.33 -83.0651 2292.72
-114.943 -83.0651 2292.72
-115.556 -83.0651 2292.72
-116.169 -83.0651 2292.72
-116.782 -83.0651 2292.72
-117.395 -83.0651 2292.72
-118.008 -83.0651 2292.72
-118.621 -83.0651 2292.72
-119.234 -83.0651 2292.72
-119.847 -83.0651 2292.72
-120.46 -83.0651 2292.72
-121.073 -83.0651 2292.72
-121.686 -83.0651 2292.72
-122.299 -83.0651 2292.72
-122.912 -83.0651 2292.72
-123.525 -83.0651 2292.72
-124.138 -83.0651 2292.72
-124.751 -83.0651 2292.72
-125.364 -83.0651 2292.72
-125.977 -83.0651 2292.72
-126.59 -83.0651 2292.72
-127.203 -83.0651 2292.72
-127.816 -83.0651 2292.72
-128.429 -83.0651 2292.72
-129.042 -83.0651 2292.72
-129.655 -83.0651 2292.72
-130.268 -83.0651 2292.72
-130.881 -83.0651 2292.72
-131.494 -83.0651 2292.72
-132.107 -83.0651 2292.72
-132.72 -83.0651 2292.72
-133.333 -83.0651 2292.72
-133.946 -83.0651 2292.72
-134.351 -82.7481 2283.97
-134.545 -82.1212 2266.67
-134.737 -81.5038 2249.62
-134.925 -80.8955 2232.84
-135.94 -81.5038 2249.62
-134.891 -79.1241 2183.94
-134.874 -78.2671 2160.29
-135.451 -78.2671 2160.29
-136.029 -78.2671 2160.29
-135.406 -76.6078 2114.49
-136.774 -77.7061 2144.8
-137.348 -77.7061 2144.8
-137.509 -77.153 2129.54
-137.668 -76.6078 2114.49
-138.233 -76.6078 2114.49
-138.799 -76.6078 2114.49
-139.155 -76.338 2107.04
-139.718 -76.338 2107.04
-140.282 -76.338 2107.04
-140.632 -76.0702 2099.65
-141.193 -76.0702 2099.65
-141.754 -76.0702 2099.65
-142.098 -75.8042 2092.31
-142.657 -75.8042 2092.31
-143.217 -75.8042 2092.31
-143.554 -75.5401 2085.02
-144.336 -75.8042 2092.31
-144.669 -75.5401 2085.02
-145.226 -75.5401 2085.02
-145.784 -75.5401 2085.02
-146.341 -75.5401 2085.02
-146.899 -75.5401 2085.02
-147.456 -75.5401 2085.02
-148.014 -75.5401 2085.02
-148.571 -75.5401 2085.02
-148.889 -75.2778 2077.78
-149.444 -75.2778 2077.78
-150 -75.2778 2077.78
-150.556 -75.2778 2077.78
-151.111 -75.2778 2077.78
-151.419 -75.0173 2070.59
-151.972 -75.0173 2070.59
-152.526 -75.0173 2070.59
-153.08 -75.0173 2070.59
-153.633 -75.0173 2070.59
-154.187 -75.0173 2070.59
-154.74 -75.0173 2070.59
-155.294 -75.0173 2070.59
-155.848 -75.0173 2070.59
-156.401 -75.0173 2070.59
-156.955 -75.0173 2070.59
-157.509 -75.0173 2070.59
-158.062 -75.0173 2070.59
-158.616 -75.0173 2070.59
-159.17 -75.0173 2070.59
-159.723 -75.0173 2070.59
-160.277 -75.0173 2070.59
-160.83 -75.0173 2070.59
-161.667 -75.2778 2077.78
-162.222 -75.2778 2077.78
-163.066 -75.5401 2085.02
-163.624 -75.5401 2085.02
-164.181 -75.5401 2085.02
-164.739 -75.5401 2085.02
-165.594 -75.8042 2092.31
-166.456 -76.0702 2099.65
-167.324 -76.338 2107.04
-168.826 -77.153 2129.54
-170.036 -77.7061 2144.8
-170.935 -77.9856 2152.52
-172.174 -78.5507 2168.12
-172.754 -78.5507 2168.12
-175.055 -80 2208.12
-176.716 -80.8955 2232.84
-178.045 -81.5038 2249.62
-179.394 -82.1212 2266.67
-180.38 -82.4335 2275.29
-181.762 -83.0651 2292.72
-182.375 -83.0651 2292.72
-182.989 -83.0651 2292.72
-183.602 -83.0651 2292.72
-184.215 -83.0651 2292.72
-184.828 -83.0651 2292.72
-185.441 -83.0651 2292.72
-186.054 -83.0651 2292.72
-186.667 -83.0651 2292.72
-187.28 -83.0651 2292.72
-187.893 -83.0651 2292.72
-188.506 -83.0651 2292.72
-189.119 -83.0651 2292.72
-189.732 -83.0651 2292.72
-190.345 -83.0651 2292.72
-190.958 -83.0651 2292.72
-191.571 -83.0651 2292.72
-192.184 -83.0651 2292.72
-192.797 -83.0651 2292.72
-193.41 -83.0651 2292.72
-194.023 -83.0651 2292.72
-194.636 -83.0651 2292.72
-195.249 -83.0651 2292.72
-195.862 -83.0651 2292.72
-196.475 -83.0651 2292.72
-197.088 -83.0651 2292.72
-197.701 -83.0651 2292.72
-198.314 -83.0651 2292.72
-198.927 -83.0651 2292.72
-199.54 -83.0651 2292.72
-200.153 -83.0651 2292.72
-200.766 -83.0651 2292.72
-201.379 -83.0651 2292.72
-201.992 -83.0651 2292.72
-202.605 -83.0651 2292.72
-203.218 -83.0651 2292.72
-203.831 -83.0651 2292.72
-204.444 -83.0651 2292.72
-205.057 -83.0651 2292.72
-205.67 -83.0651 2292.72
-206.284 -83.0651 2292.72
-206.897 -83.0651 2292.72
-208 -83.3846 2301.54
-208.123 -83.0651 2292.72
-208.736 -83.0651 2292.72
-209.349 -83.0651 2292.72
-209.962 -83.0651 2292.72
-210.575 -83.0651 2292.72
37.7258 -71.9732 2001.34
38.3784 -72.7027 2021.62
39.8625 -73.9519 2056.36
39.7241 -74.2069 2063.45
38.7629 -73.9519 2056.36
38.6207 -74.2069 2063.45
38.8889 -74.7222 2077.78
37.9239 -74.4637 2070.59
37.7778 -74.7222 2077.78
36.8166 -74.4637 2070.59
36.6667 -74.7222 2077.78
36.1111 -74.7222 2077.78
35.9582 -74.9826 2085.02
35.4007 -74.9826 2085.02
34.8432 -74.9826 2085.02
34.2857 -74.9826 2085.02
33.7282 -74.9826 2085.02
33.1707 -74.9826 2085.02
32.6132 -74.9826 2085.02
32.0557 -74.9826 2085.02
31.4983 -74.9826 2085.02
30.9408 -74.9826 2085.02
30.7692 -75.2448 2092.31
30.2098 -75.2448 2092.31
29.6503 -75.2448 2092.31
29.0909 -75.2448 2092.31
28.5315 -75.2448 2092.31
27.972 -75.2448 2092.31
27.4126 -75.2448 2092.31
26.8531 -75.2448 2092.31
26.2937 -75.2448 2092.31
26.1053 -75.5088 2099.65
25.5439 -75.5088 2099.65
24.9825 -75.5088 2099.65
24.4211 -75.5088 2099.65
23.8596 -75.5088 2099.65
23.2982 -75.5088 2099.65
22.7368 -75.5088 2099.65
22.5352 -75.7746 2107.04
21.9718 -75.7746 2107.04
21.4085 -75.7746 2107.04
20.8451 -75.7746 2107.04
20.2817 -75.7746 2107.04
19.7183 -75.7746 2107.04
19.1549 -75.7746 2107.04
18.5915 -75.7746 2107.04
18.0282 -75.7746 2107.04
17.4648 -75.7746 2107.04
17.2438 -76.0424 2114.49
16.6784 -76.0424 2114.49
16.1131 -76.0424 2114.49
15.5477 -76.0424 2114.49
14.9823 -76.0424 2114.49
14.417 -76.0424 2114.49
13.8516 -76.0424 2114.49
13.2862 -76.0424 2114.49
13.0496 -76.3121 2121.99
12.4823 -76.3121 2121.99
11.9149 -76.3121 2121.99
11.3475 -76.3121 2121.99
10.7801 -76.3121 2121.99
10.2128 -76.3121 2121.99
9.64539 -76.3121 2121.99
9.39502 -76.5836 2129.54
8.82562 -76.5836 2129.54
8.25623 -76.5836 2129.54
7.68683 -76.5836 2129.54
7.11744 -76.5836 2129.54
6.54804 -76.5836 2129.54
5.97865 -76.5836 2129.54
5.40925 -76.5836 2129.54
4.83986 -76.5836 2129.54
4.27046 -76.5836 2129.54
4 -76.8571 2137.14
3.42857 -76.8571 2137.14
2.85714 -76.8571 2137.14
2.28571 -76.8571 2137.14
1.71429 -76.8571 2137.14
1.14286 -76.8571 2137.14
0.571429 -76.8571 2137.14
0.286738 -77.1326 2144.8
-0.286738 -77.1326 2144.8
-0.860215 -77.1326 2144.8
-1.43369 -77.1326 2144.8
-2.00717 -77.1326 2144.8
-2.58065 -77.1326 2144.8
-3.15412 -77.1326 2144.8
-3.7276 -77.1326 2144.8
-4.30108 -77.1326 2144.8
-4.60432 -77.4101 2152.52
-5.17986 -77.4101 2152.52
-5.7554 -77.4101 2152.52
-6.33094 -77.4101 2152.52
-6.90647 -77.4101 2152.52
-7.48201 -77.4101 2152.52
-8.05755 -77.4101 2152.52
-8.63309 -77.4101 2152.52
-9.20863 -77.4101 2152.52
-9.53069 -77.6895 2160.29
-10.1083 -77.6895 2160.29
-10.6859 -77.6895 2160.29
-11.2635 -77.6895 2160.29
-11.8412 -77.6895 2160.29
-12.4188 -77.6895 2160.29
-12.9964 -77.6895 2160.29
-13.3333 -77.971 2168.12
-13.913 -77.971 2168.12
-14.4928 -77.971 2168.12
-15.0725 -77.971 2168.12
-15.6522 -77.971 2168.12
-16.2319 -77.971 2168.12
-16.8116 -77.971 2168.12
-17.3913 -77.971 2168.12
-17.7455 -78.2545 2176
-18.3273 -78.2545 2176
-18.9091 -78.2545 2176
-19.4909 -78.2545 2176
-20.0727 -78.2545 2176
-20.6545 -78.2545 2176
-21.2364 -78.2545 2176
-21.8182 -78.2545 2176
-22.4 -78.2545 2176
-22.7737 -78.5401 2183.94
-23.3577 -78.5401 2183.94
-23.9416 -78.5401 2183.94
-24.5255 -78.5401 2183.94
-25.1095 -78.5401 2183.94
-25.6934 -78.5401 2183.94
-26.2774 -78.5401 2183.94
-26.6667 -78.8278 2191.94
-27.4453 -78.5401 2183.94
-27.8388 -78.8278 2191.94
-28.4249 -78.8278 2191.94
-29.011 -78.8278 2191.94
-29.5971 -78.8278 2191.94
-30.1832 -78.8278 2191.94
-30.7692 -78.8278 2191.94
-31.3553 -78.8278 2191.94
-31.7647 -79.1176 2200
-32.3529 -79.1176 2200
-32.9412 -79.1176 2200
-33.5294 -79.1176 2200
-34.1176 -79.1176 2200
-34.7059 -79.1176 2200
-35.2941 -79.1176 2200
-35.8824 -79.1176 2200
-36.31 -79.4096 2208.12
-36.9004 -79.4096 2208.12
-37.4908 -79.4096 2208.12
-38.0812 -79.4096 2208.12
-38.6716 -79.4096 2208.12
-39.262 -79.4096 2208.12
-39.8524 -79.4096 2208.12
-40.4428 -79.4096 2208.12
-41.0332 -79.4096 2208.12
-41.4815 -79.7037 2216.3
-42.0741 -79.7037 2216.3
-42.6667 -79.7037 2216.3
-43.2593 -79.7037 2216.3
-43.8519 -79.7037 2216.3
-44.4444 -79.7037 2216.3
-45.037 -79.7037 2216.3
-45.6296 -79.7037 2216.3
-46.0967 -80 2224.54
-46.6914 -80 2224.54
-47.2862 -80 2224.54
-47.881 -80 2224.54
-48.4758 -80 2224.54
-49.0706 -80 2224.54
-49.6654 -80 2224.54
-50.2602 -80 2224.54
-50.855 -80 2224.54
-51.4498 -80 2224.54
-51.9403 -80.2985 2232.84
-52.5373 -80.2985 2232.84
-53.1343 -80.2985 2232.84
-53.7313 -80.2985 2232.84
-54.3284 -80.2985 2232.84
-54.9254 -80.2985 2232.84
-55.5224 -80.2985 2232.84
-56.03 -80.5993 2241.2
-56.6292 -80.5993 2241.2
-57.2285 -80.5993 2241.2
-57.8277 -80.5993 2241.2
-58.427 -80.5993 2241.2
-59.0262 -80.5993 2241.2
-59.6255 -80.5993 2241.2
-60.2247 -80.5993 2241.2
-60.7519 -80.9023 2249.62
-61.3534 -80.9023 2249.62
-61.9549 -80.9023 2249.62
-62.5564 -80.9023 2249.62
-63.1579 -80.9023 2249.62
-63.7594 -80.9023 2249.62
-64.3609 -80.9023 2249.62
-64.9624 -80.9023 2249.62
-65.5094 -81.2075 2258.11
-66.1132 -81.2075 2258.11
-66.717 -81.2075 2258.11
-67.3208 -81.2075 2258.11
-67.8788 -81.5152 2266.67
-68.4848 -81.5152 2266.67
-69.0494 -81.8251 2275.29
-69.5785 -82.4521 2292.72
-70.229 -82.1374 2283.97
-70.8397 -82.1374 2283.97
-71.4176 -82.4521 2292.72
-72.0307 -82.4521 2292.72
-72.6437 -82.4521 2292.72
-73.2567 -82.4521 2292.72
-73.8697 -82.4521 2292.72
-74.4828 -82.4521 2292.72
-75.0958 -82.4521 2292.72
-75.7088 -82.4521 2292.72
-76.3218 -82.4521 2292.72
-76.9349 -82.4521 2292.72
-77.5479 -82.4521 2292.72
-78.1609 -82.4521 2292.72
-78.7739 -82.4521 2292.72
-79.387 -82.4521 2292.72
-80 -82.4521 2292.72
-80.613 -82.4521 2292.72
-81.2261 -82.4521 2292.72
-81.8391 -82.4521 2292.72
-82.4521 -82.4521 2292.72
-83.0651 -82.4521 2292.72
-83.6782 -82.4521 2292.72
-84.2912 -82.4521 2292.72
-84.9042 -82.4521 2292.72
-85.5172 -82.4521 2292.72
-86.1303 -82.4521 2292.72
-86.7433 -82.4521 2292.72
-87.3563 -82.4521 2292.72
-87.9693 -82.4521 2292.72
-88.5824 -82.4521 2292.72
-89.1954 -82.4521 2292.72
-89.8084 -82.4521 2292.72
-90.4215 -82.4521 2292.72
-91.0345 -82.4521 2292.72
-91.6475 -82.4521 2292.72
-92.2605 -82.4521 2292.72
-92.8736 -82.4521 2292.72
-93.4866 -82.4521 2292.72
-94.0996 -82.4521 2292.72
-94.7126 -82.4521 2292.72
-95.3257 -82.4521 2292.72
-95.9387 -82.4521 2292.72
-96.5517 -82.4521 2292.72
-97.1648 -82.4521 2292.72
-97.7778 -82.4521 2292.72
-98.3908 -82.4521 2292.72
-99.0038 -82.4521 2292.72
-99.6169 -82.4521 2292.72
-100.23 -82.4521 2292.72
-100.843 -82.4521 2292.72
-101.456 -82.4521 2292.72
-102.069 -82.4521 2292.72
-102.682 -82.4521 2292.72
-103.295 -82.4521 2292.72
-103.908 -82.4521 2292.72
-104.521 -82.4521 2292.72
-105.134 -82.4521 2292.72
-105.747 -82.4521 2292.72
-106.36 -82.4521 2292.72
-106.973 -82.4521 2292.72
-107.586 -82.4521 2292.72
-108.199 -82.4521 2292.72
-108.812 -82.4521 2292.72
-109.425 -82.4521 2292.72
-110.038 -82.4521 2292.72
-110.651 -82.4521 2292.72
-111.264 -82.4521 2292.72
-111.877 -82.4521 2292.72
-112.49 -82.4521 2292.72
-113.103 -82.4521 2292.72
-113.716 -82.4521 2292.72
-114.33 -82.4521 2292.72
-114.943 -82.4521 2292.72
-115.556 -82.4521 2292.72
-116.169 -82.4521 2292.72
-116.782 -82.4521 2292.72
-117.395 -82.4521 2292.72
-118.008 -82.4521 2292.72
-118.621 -82.4521 2292.72
-119.234 -82.4521 2292.72
-119.847 -82.4521 2292.72
-120.46 -82.4521 2292.72
-121.073 -82.4521 2292.72
-121.686 -82.4521 2292.72
-122.299 -82.4521 2292.72
-122.912 -82.4521 2292.72
-123.525 -82.4521 2292.72
-124.138 -82.4521 2292.72
-124.751 -82.4521 2292.72
-125.364 -82.4521 2292.72
-125.977 -82.4521 2292.72
-126.59 -82.4521 2292.72
-127.203 -82.4521 2292.72
-127.816 -82.4521 2292.72
-128.429 -82.4521 2292.72
-129.042 -82.4521 2292.72
-129.655 -82.4521 2292.72
-130.268 -82.4521 2292.72
-130.881 -82.4521 2292.72
-131.494 -82.4521 2292.72
-132.107 -82.4521 2292.72
-132.72 -82.4521 2292.72
-133.333 -82.4521 2292.72
-133.946 -82.4521 2292.72
-134.351 -82.1374 2283.97
-134.753 -81.8251 2275.29
-134.943 -81.2075 2258.11
-135.758 -81.5152 2266.67
-135.316 -80 2224.54
-136.755 -81.2075 2258.11
-136.929 -80.5993 2241.2
-137.1 -80 2224.54
-137.059 -79.1176 2200
-136.201 -77.1326 2144.8
-136.17 -76.3121 2121.99
-137.554 -77.4101 2152.52
-137.305 -76.3121 2121.99
-137.872 -76.3121 2121.99
-138.233 -76.0424 2114.49
-138.592 -75.7746 2107.04
-139.364 -76.0424 2114.49
-139.929 -76.0424 2114.49
-140.282 -75.7746 2107.04
-140.632 -75.5088 2099.65
-141.193 -75.5088 2099.65
-141.754 -75.5088 2099.65
-142.098 -75.2448 2092.31
-142.657 -75.2448 2092.31
-143.217 -75.2448 2092.31
-143.776 -75.2448 2092.31
-144.111 -74.9826 2085.02
-144.669 -74.9826 2085.02
-145.226 -74.9826 2085.02
-145.784 -74.9826 2085.02
-146.341 -74.9826 2085.02
-146.899 -74.9826 2085.02
-147.456 -74.9826 2085.02
-148.014 -74.9826 2085.02
-148.571 -74.9826 2085.02
-149.129 -74.9826 2085.02
-149.444 -74.7222 2077.78
-150 -74.7222 2077.78
-150.556 -74.7222 2077.78
-151.111 -74.7222 2077.78
-151.419 -74.4637 2070.59
-151.972 -74.4637 2070.59
-152.526 -74.4637 2070.59
-153.08 -74.4637 2070.59
-153.633 -74.4637 2070.59
-154.187 -74.4637 2070.59
-154.74 -74.4637 2070.59
-155.294 -74.4637 2070.59
-155.848 -74.4637 2070.59
-156.401 -74.4637 2070.59
-156.955 -74.4637 2070.59
-157.509 -74.4637 2070.59
-158.062 -74.4637 2070.59
-158.616 -74.4637 2070.59
-159.444 -74.7222 2077.78
-159.723 -74.4637 2070.59
-160.277 -74.4637 2070.59
-161.111 -74.7222 2077.78
-161.667 -74.7222 2077.78
-162.222 -74.7222 2077.78
-163.066 -74.9826 2085.02
-163.624 -74.9826 2085.02
-164.181 -74.9826 2085.02
-165.035 -75.2448 2092.31
-165.594 -75.2448 2092.31
-166.456 -75.5088 2099.65
-167.633 -76.0424 2114.49
-168.826 -76.5836 2129.54
-170.036 -77.1326 2144.8
-171.927 -78.2545 2176
-173.187 -78.8278 2191.94
-174.465 -79.4096 2208.12
-176.479 -80.5993 2241.2
-177.444 -80.9023 2249.62
-178.788 -81.5152 2266.67
-179.772 -81.8251 2275.29
-180.763 -82.1374 2283.97
-181.762 -82.4521 2292.72
-182.375 -82.4521 2292.72
-182.989 -82.4521 2292.72
-183.602 -82.4521 2292.72
-184.215 -82.4521 2292.72
-184.828 -82.4521 2292.72
-185.441 -82.4521 2292.72
-186.054 -82.4521 2292.72
-186.667 -82.4521 2292.72
-187.28 -82.4521 2292.72
-187.893 -82.4521 2292.72
-188.506 -82.4521 2292.72
-189.119 -82.4521 2292.72
-189.732 -82.4521 2292.72
-190.345 -82.4521 2292.72
-190.958 -82.4521 2292.72
-191.571 -82.4521 2292.72
-192.184 -82.4521 2292.72
-192.797 -82.4521 2292.72
-193.41 -82.4521 2292.72
-194.023 -82.4521 2292.72
-194.636 -82.4521 2292.72
-195.249 -82.4521 2292.72
-195.862 -82.4521 2292.72
-196.475 -82.4521 2292.72
-197.088 -82.4521 2292.72
-197.701 -82.4521 2292.72
-198.314 -82.4521 2292.72
-198.927 -82.4521 2292.72
-199.54 -82.4521 2292.72
-200.153 -82.4521 2292.72
-200.766 -82.4521 2292.72
-201.379 -82.4521 2292.72
-201.992 -82.4521 2292.72
-202.605 -82.4521 2292.72
-203.218 -82.4521 2292.72
-203.831 -82.4521 2292.72
-204.444 -82.4521 2292.72
-205.057 -82.4521 2292.72
-205.67 -82.4521 2292.72
-206.284 -82.4521 2292.72
-207.385 -82.7692 2301.54
-207.51 -82.4521 2292.72
-208.123 -82.4521 2292.72
-208.736 -82.4521 2292.72
-209.349 -82.4521 2292.72
-209.962 -82.4521 2292.72
-210.575 -82.4521 2292.72
38.9189 -72.1622 2021.62
39.1837 -72.6531 2035.37
38.6395 -72.6531 2035.37
38.4983 -72.901 2042.32
37.551 -72.6531 2035.37
39.0311 -73.91 2070.59
38.4775 -73.91 2070.59
37.1134 -73.4021 2056.36
37.3702 -73.91 2070.59
36.4138 -73.6552 2063.45
36.263 -73.91 2070.59
36.1111 -74.1667 2077.78
35.9582 -74.4251 2085.02
35.4007 -74.4251 2085.02
34.8432 -74.4251 2085.02
34.2857 -74.4251 2085.02
33.7282 -74.4251 2085.02
33.1707 -74.4251 2085.02
32.6132 -74.4251 2085.02
32.0557 -74.4251 2085.02
31.4983 -74.4251 2085.02
30.9408 -74.4251 2085.02
30.3833 -74.4251 2085.02
30.2098 -74.6853 2092.31
29.6503 -74.6853 2092.31
29.0909 -74.6853 2092.31
28.5315 -74.6853 2092.31
27.972 -74.6853 2092.31
27.4126 -74.6853 2092.31
26.8531 -74.6853 2092.31
26.2937 -74.6853 2092.31
26.1053 -74.9474 2099.65
25.5439 -74.9474 2099.65
24.9825 -74.9474 2099.65
24.4211 -74.9474 2099.65
23.8596 -74.9474 2099.65
23.2982 -74.9474 2099.65
22.7368 -74.9474 2099.65
22.5352 -75.2113 2107.04
21.9718 -75.2113 2107.04
21.4085 -75.2113 2107.04
20.8451 -75.2113 2107.04
20.2817 -75.2113 2107.04
19.7183 -75.2113 2107.04
19.1549 -75.2113 2107.04
18.5915 -75.2113 2107.04
18.0282 -75.2113 2107.04
17.4648 -75.2113 2107.04
17.2438 -75.477 2114.49
16.6784 -75.477 2114.49
16.1131 -75.477 2114.49
15.5477 -75.477 2114.49
14.9823 -75.477 2114.49
14.417 -75.477 2114.49
13.8516 -75.477 2114.49
13.2862 -75.477 2114.49
13.0496 -75.7447 2121.99
12.4823 -75.7447 2121.99
11.9149 -75.7447 2121.99
11.3475 -75.7447 2121.99
10.7801 -75.7447 2121.99
10.2128 -75.7447 2121.99
9.64539 -75.7447 2121.99
9.07801 -75.7447 2121.99
8.82562 -76.0142 2129.54
8.25623 -76.0142 2129.54
7.68683 -76.0142 2129.54
7.11744 -76.0142 2129.54
6.54804 -76.0142 2129.54
5.97865 -76.0142 2129.54
5.40925 -76.0142 2129.54
4.83986 -76.0142 2129.54
4.27046 -76.0142 2129.54
4 -76.2857 2137.14
3.42857 -76.2857 2137.14
2.85714 -76.2857 2137.14
2.28571 -76.2857 2137.14
1.71429 -76.2857 2137.14
1.14286 -76.2857 2137.14
0.571429 -76.2857 2137.14
0.286738 -76.5591 2144.8
-0.286738 -76.5591 2144.8
-0.860215 -76.5591 2144.8
-1.43369 -76.5591 2144.8
-2.00717 -76.5591 2144.8
-2.58065 -76.5591 2144.8
-3.15412 -76.5591 2144.8
-3.7276 -76.5591 2144.8
-4.30108 -76.5591 2144.8
-4.60432 -76.8345 2152.52
-5.17986 -76.8345 2152.52
-5.7554 -76.8345 2152.52
-6.33094 -76.8345 2152.52
-6.90647 -76.8345 2152.52
-7.48201 -76.8345 2152.52
-8.05755 -76.8345 2152.52
-8.63309 -76.8345 2152.52
-9.20863 -76.8345 2152.52
-9.53069 -77.1119 2160.29
-10.1083 -77.1119 2160.29
-10.6859 -77.1119 2160.29
-11.2635 -77.1119 2160.29
-11.8412 -77.1119 2160.29
-12.4188 -77.1119 2160.29
-12.9964 -77.1119 2160.29
-13.3333 -77.3913 2168.12
-13.913 -77.3913 2168.12
-14.4928 -77.3913 2168.12
-15.0725 -77.3913 2168.12
-15.6522 -77.3913 2168.12
-16.2319 -77.3913 2168.12
-16.8116 -77.3913 2168.12
-17.3913 -77.3913 2168.12
-17.7455 -77.6727 2176
-18.3273 -77.6727 2176
-18.9091 -77.6727 2176
-19.4909 -77.6727 2176
-20.0727 -77.6727 2176
-20.6545 -77.6727 2176
-21.2364 -77.6727 2176
-21.8182 -77.6727 2176
-22.4 -77.6727 2176
-22.7737 -77.9562 2183.94
-23.3577 -77.9562 2183.94
-23.9416 -77.9562 2183.94
-24.5255 -77.9562 2183.94
-25.1095 -77.9562 2183.94
-25.6934 -77.9562 2183.94
-26.2774 -77.9562 2183.94
-26.8613 -77.9562 2183.94
-27.4453 -77.9562 2183.94
-27.8388 -78.2418 2191.94
-28.4249 -78.2418 2191.94
-29.011 -78.2418 2191.94
-29.5971 -78.2418 2191.94
-30.1832 -78.2418 2191.94
-30.7692 -78.2418 2191.94
-31.3553 -78.2418 2191.94
-31.7647 -78.5294 2200
-32.3529 -78.5294 2200
-32.9412 -78.5294 2200
-33.5294 -78.5294 2200
-34.1176 -78.5294 2200
-34.7059 -78.5294 2200
-35.2941 -78.5294 2200
-35.8824 -78.5294 2200
-36.31 -78.8192 2208.12
-36.9004 -78.8192 2208.12
-37.4908 -78.8192 2208.12
-38.0812 -78.8192 2208.12
-38.6716 -78.8192 2208.12
-39.262 -78.8192 2208.12
-39.8524 -78.8192 2208.12
-40.4428 -78.8192 2208.12
-41.0332 -78.8192 2208.12
-41.4815 -79.1111 2216.3
-42.0741 -79.1111 2216.3
-42.6667 -79.1111 2216.3
-43.2593 -79.1111 2216.3
-43.8519 -79.1111 2216.3
-44.4444 -79.1111 2216.3
-45.037 -79.1111 2216.3
-45.6296 -79.1111 2216.3
-46.2222 -79.1111 2216.3
-46.6914 -79.4052 2224.54
-47.2862 -79.4052 2224.54
-47.881 -79.4052 2224.54
-48.4758 -79.4052 2224.54
-49.0706 -79.4052 2224.54
-49.6654 -79.4052 2224.54
-50.2602 -79.4052 2224.54
-50.855 -79.4052 2224.54
-51.4498 -79.4052 2224.54
-51.9403 -79.7015 2232.84
-52.5373 -79.7015 2232.84
-53.1343 -79.7015 2232.84
-53.7313 -79.7015 2232.84
-54.3284 -79.7015 2232.84
-54.9254 -79.7015 2232.84
-55.5224 -79.7015 2232.84
-56.1194 -79.7015 2232.84
-56.6292 -80 2241.2
-57.2285 -80 2241.2
-57.8277 -80 2241.2
-58.427 -80 2241.2
-59.0262 -80 2241.2
-59.6255 -80 2241.2
-60.2247 -80 2241.2
-60.7519 -80.3008 2249.62
-61.3534 -80.3008 2249.62
-61.9549 -80.3008 2249.62
-62.5564 -80.3008 2249.62
-63.1579 -80.3008 2249.62
-63.7594 -80.3008 2249.62
-64.3609 -80.3008 2249.62
-64.9624 -80.3008 2249.62
-65.5094 -80.6038 2258.11
-66.1132 -80.6038 2258.11
-66.717 -80.6038 2258.11
-67.3208 -80.6038 2258.11
-67.8788 -80.9091 2266.67
-68.4848 -80.9091 2266.67
-69.0494 -81.2167 2275.29
-69.6578 -81.2167 2275.29
-70.229 -81.5267 2283.97
-70.8397 -81.5267 2283.97
-71.4176 -81.8391 2292.72
-72.0307 -81.8391 2292.72
-72.6437 -81.8391 2292.72
-73.2567 -81.8391 2292.72
-73.8697 -81.8391 2292.72
-74.4828 -81.8391 2292.72
-75.0958 -81.8391 2292.72
-75.7088 -81.8391 2292.72
-76.3218 -81.8391 2292.72
-76.9349 -81.8391 2292.72
-77.5479 -81.8391 2292.72
-78.1609 -81.8391 2292.72
-78.7739 -81.8391 2292.72
-79.387 -81.8391 2292.72
-80 -81.8391 2292.72
-80.613 -81.8391 2292.72
-81.2261 -81.8391 2292.72
-81.8391 -81.8391 2292.72
-82.4521 -81.8391 2292.72
-83.0651 -81.8391 2292.72
-83.6782 -81.8391 2292.72
-84.2912 -81.8391 2292.72
-84.9042 -81.8391 2292.72
-85.5172 -81.8391 2292.72
-86.1303 -81.8391 2292.72
-86.7433 -81.8391 2292.72
-87.3563 -81.8391 2292.72
-87.9693 -81.8391 2292.72
-88.5824 -81.8391 2292.72
-89.1954 -81.8391 2292.72
-89.8084 -81.8391 2292.72
-90.4215 -81.8391 2292.72
-91.0345 -81.8391 2292.72
-91.6475 -81.8391 2292.72
-92.2605 -81.8391 2292.72
-92.8736 -81.8391 2292.72
-93.4866 -81.8391 2292.72
-94.0996 -81.8391 2292.72
-94.7126 -81.8391 2292.72
-95.3257 -81.8391 2292.72
-95.9387 -81.8391 2292.72
-96.5517 -81.8391 2292.72
-97.1648 -81.8391 2292.72
-97.7778 -81.8391 2292.72
-98.3908 -81.8391 2292.72
-99.0038 -81.8391 2292.72
-99.6169 -81.8391 2292.72
-100.23 -81.8391 2292.72
-100.843 -81.8391 2292.72
-101.456 -81.8391 2292.72
-102.069 -81.8391 2292.72
-102.682 -81.8391 2292.72
-103.295 -81.8391 2292.72
-103.908 -81.8391 2292.72
-104.521 -81.8391 2292.72
-105.134 -81.8391 2292.72
-105.747 -81.8391 2292.72
-106.36 -81.8391 2292.72
-106.973 -81.8391 2292.72
-107.586 -81.8391 2292.72
-108.199 -81.8391 2292.72
-108.812 -81.8391 2292.72
-109.425 -81.8391 2292.72
-110.038 -81.8391 2292.72
-110.651 -81.8391 2292.72
-111.264 -81.8391 2292.72
-111.877 -81.8391 2292.72
-112.49 -81.8391 2292.72
-113.103 -81.8391 2292.72
-113.716 -81.8391 2292.72
-114.33 -81.8391 2292.72
-114.943 -81.8391 2292.72
-115.556 -81.8391 2292.72
-116.169 -81.8391 2292.72
-116.782 -81.8391 2292.72
-117.395 -81.8391 2292.72
-118.008 -81.8391 2292.72
-118.621 -81.8391 2292.72
-119.234 -81.8391 2292.72
-119.847 -81.8391 2292.72
-120.46 -81.8391 2292.72
-121.073 -81.8391 2292.72
-121.686 -81.8391 2292.72
-122.299 -81.8391 2292.72
-122.912 -81.8391 2292.72
-123.525 -81.8391 2292.72
-124.138 -81.8391 2292.72
-124.751 -81.8391 2292.72
-125.364 -81.8391 2292.72
-125.977 -81.8391 2292.72
-126.59 -81.8391 2292.72
-127.203 -81.8391 2292.72
-127.816 -81.8391 2292.72
-128.429 -81.8391 2292.72
-129.042 -81.8391 2292.72
-129.655 -81.8391 2292.72
-130.268 -81.8391 2292.72
-130.881 -81.8391 2292.72
-131.494 -81.8391 2292.72
-132.107 -81.8391 2292.72
-132.72 -81.8391 2292.72
-133.333 -81.8391 2292.72
-133.946 -81.8391 2292.72
-134.351 -81.5267 2283.97
-134.962 -81.5267 2283.97
-135.361 -81.2167 2275.29
-136.183 -81.5267 2283.97
-136.151 -80.6038 2258.11
-136.33 -80 2241.2
-137.358 -80.6038 2258.11
-137.528 -80 2241.2
-137.481 -79.1111 2216.3
-136.606 -77.1119 2160.29
-137.6 -77.6727 2176
-137.554 -76.8345 2152.52
-137.921 -76.5591 2144.8
-138.078 -76.0142 2129.54
-138.44 -75.7447 2121.99
-139.007 -75.7447 2121.99
-139.574 -75.7447 2121.99
-139.929 -75.477 2114.49
-140.495 -75.477 2114.49
-140.845 -75.2113 2107.04
-141.408 -75.2113 2107.04
-141.754 -74.9474 2099.65
-142.098 -74.6853 2092.31
-142.657 -74.6853 2092.31
-143.217 -74.6853 2092.31
-143.776 -74.6853 2092.31
-144.111 -74.4251 2085.02
-144.669 -74.4251 2085.02
-145.226 -74.4251 2085.02
-145.784 -74.4251 2085.02
-146.341 -74.4251 2085.02
-146.899 -74.4251 2085.02
-147.456 -74.4251 2085.02
-148.014 -74.4251 2085.02
-148.333 -74.1667 2077.78
-149.129 -74.4251 2085.02
-149.686 -74.4251 2085.02
-150.244 -74.4251 2085.02
-150.556 -74.1667 2077.78
-151.111 -74.1667 2077.78
-151.667 -74.1667 2077.78
-151.972 -73.91 2070.59
-152.526 -73.91 2070.59
-153.08 -73.91 2070.59
-153.633 -73.91 2070.59
-154.187 -73.91 2070.59
-154.74 -73.91 2070.59
-155.294 -73.91 2070.59
-155.848 -73.91 2070.59
-156.401 -73.91 2070.59
-156.955 -73.91 2070.59
-157.509 -73.91 2070.59
-158.062 -73.91 2070.59
-158.616 -73.91 2070.59
-159.17 -73.91 2070.59
-159.723 -73.91 2070.59
-160.277 -73.91 2070.59
-161.111 -74.1667 2077.78
-161.667 -74.1667 2077.78
-162.509 -74.4251 2085.02
-163.066 -74.4251 2085.02
-163.624 -74.4251 2085.02
-164.181 -74.4251 2085.02
-165.035 -74.6853 2092.31
-165.594 -74.6853 2092.31
-166.761 -75.2113 2107.04
-167.633 -75.477 2114.49
-168.826 -76.0142 2129.54
-170.686 -77.1119 2160.29
-172.263 -77.9562 2183.94
-173.529 -78.5294 2200
-175.167 -79.4052 2224.54
-176.479 -80 2241.2
-177.811 -80.6038 2258.11
-179.163 -81.2167 2275.29
-180.153 -81.5267 2283.97
-181.149 -81.8391 2292.72
-181.762 -81.8391 2292.72
-182.375 -81.8391 2292.72
-182.989 -81.8391 2292.72
-183.602 -81.8391 2292.72
-184.215 -81.8391 2292.72
-184.828 -81.8391 2292.72
-185.441 -81.8391 2292.72
-186.054 -81.8391 2292.72
-186.667 -81.8391 2292.72
-187.28 -81.8391 2292.72
-187.893 -81.8391 2292.72
-188.506 -81.8391 2292.72
-189.119 -81.8391 2292.72
-189.732 -81.8391 2292.72
-190.345 -81.8391 2292.72
-190.958 -81.8391 2292.72
-191.571 -81.8391 2292.72
-192.184 -81.8391 2292.72
-192.797 -81.8391 2292.72
-193.41 -81.8391 2292.72
-194.023 -81.8391 2292.72
-194.636 -81.8391 2292.72
-195.249 -81.8391 2292.72
-195.862 -81.8391 2292.72
-196.475 -81.8391 2292.72
-197.088 -81.8391 2292.72
-197.701 -81.8391 2292.72
-198.314 -81.8391 2292.72
-198.927 -81.8391 2292.72
-199.54 -81.8391 2292.72
-200.153 -81.8391 2292.72
-200.766 -81.8391 2292.72
-201.379 -81.8391 2292.72
-201.992 -81.8391 2292.72
-202.605 -81.8391 2292.72
-203.218 -81.8391 2292.72
-203.831 -81.8391 2292.72
-204.444 -81.8391 2292.72
-205.057 -81.8391 2292.72
-205.67 -81.8391 2292.72
-206.284 -81.8391 2292.72
-206.897 -81.8391 2292.72
-208 -82.1538 2301.54
-208.123 -81.8391 2292.72
-208.736 -81.8391 2292.72
-209.349 -81.8391 2292.72
-209.962 -81.8391 2292.72
-210.575 -81.8391 2292.72
36.1716 -69.967 1974.92
37.1906 -70.903 2001.34
36.6555 -70.903 2001.34
36.1204 -70.903 2001.34
35.9732 -71.1409 2008.05
36.2162 -71.6216 2021.62
35.2862 -71.3805 2014.81
35.9184 -72.1088 2035.37
36.9655 -73.1034 2063.45
36.0137 -72.8522 2056.36
35.8621 -73.1034 2063.45
35.7093 -73.3564 2070.59
35.5556 -73.6111 2077.78
35.4007 -73.8676 2085.02
34.8432 -73.8676 2085.02
34.2857 -73.8676 2085.02
33.7282 -73.8676 2085.02
33.1707 -73.8676 2085.02
32.6132 -73.8676 2085.02
32.0557 -73.8676 2085.02
31.4983 -73.8676 2085.02
30.9408 -73.8676 2085.02
30.3833 -73.8676 2085.02
30.2098 -74.1259 2092.31
29.6503 -74.1259 2092.31
29.0909 -74.1259 2092.31
28.5315 -74.1259 2092.31
27.972 -74.1259 2092.31
27.4126 -74.1259 2092.31
26.8531 -74.1259 2092.31
26.2937 -74.1259 2092.31
26.1053 -74.386 2099.65
25.5439 -74.386 2099.65
24.9825 -74.386 2099.65
24.4211 -74.386 2099.65
23.8596 -74.386 2099.65
23.2982 -74.386 2099.65
22.7368 -74.386 2099.65
22.1754 -74.386 2099.65
21.9718 -74.6479 2107.04
21.4085 -74.6479 2107.04
20.8451 -74.6479 2107.04
20.2817 -74.6479 2107.04
19.7183 -74.6479 2107.04
19.1549 -74.6479 2107.04
18.5915 -74.6479 2107.04
18.0282 -74.6479 2107.04
17.4648 -74.6479 2107.04
17.2438 -74.9117 2114.49
16.6784 -74.9117 2114.49
16.1131 -74.9117 2114.49
15.5477 -74.9117 2114.49
14.9823 -74.9117 2114.49
14.417 -74.9117 2114.49
13.8516 -74.9117 2114.49
13.2862 -74.9117 2114.49
13.0496 -75.1773 2121.99
12.4823 -75.1773 2121.99
11.9149 -75.1773 2121.99
11.3475 -75.1773 2121.99
10.7801 -75.1773 2121.99
10.2128 -75.1773 2121.99
9.64539 -75.1773 2121.99
9.07801 -75.1773 2121.99
8.82562 -75.4448 2129.54
8.25623 -75.4448 2129.54
7.68683 -75.4448 2129.54
7.11744 -75.4448 2129.54
6.54804 -75.4448 2129.54
5.97865 -75.4448 2129.54
5.40925 -75.4448 2129.54
4.83986 -75.4448 2129.54
4.27046 -75.4448 2129.54
4 -75.7143 2137.14
3.42857 -75.7143 2137.14
2.85714 -75.7143 2137.14
2.28571 -75.7143 2137.14
1.71429 -75.7143 2137.14
1.14286 -75.7143 2137.14
0.571429 -75.7143 2137.14
-0 -75.7143 2137.14
-0.286738 -75.9857 2144.8
-0.860215 -75.9857 2144.8
-1.43369 -75.9857 2144.8
-2.00717 -75.9857 2144.8
-2.58065 -75.9857 2144.8
-3.15412 -75.9857 2144.8
-3.7276 -75.9857 2144.8
-4.30108 -75.9857 2144.8
-4.87455 -75.9857 2144.8
-5.17986 -76.259 2152.52
-5.7554 -76.259 2152.52
-6.33094 -76.259 2152.52
-6.90647 -76.259 2152.52
-7.48201 -76.259 2152.52
-8.05755 -76.259 2152.52
-8.63309 -76.259 2152.52
-9.20863 -76.259 2152.52
-9.53069 -76.5343 2160.29
-10.1083 -76.5343 2160.29
-10.6859 -76.5343 2160.29
-11.2635 -76.5343 2160.29
-11.8412 -76.5343 2160.29
-12.4188 -76.5343 2160.29
-12.9964 -76.5343 2160.29
-13.574 -76.5343 2160.29
-13.913 -76.8116 2168.12
-14.4928 -76.8116 2168.12
-15.0725 -76.8116 2168.12
-15.6522 -76.8116 2168.12
-16.2319 -76.8116 2168.12
-16.8116 -76.8116 2168.12
-17.3913 -76.8116 2168.12
-17.7455 -77.0909 2176
-18.3273 -77.0909 2176
-18.9091 -77.0909 2176
-19.4909 -77.0909 2176
-20.0727 -77.0909 2176
-20.6545 -77.0909 2176
-21.2364 -77.0909 2176
-21.8182 -77.0909 2176
-22.4 -77.0909 2176
-22.7737 -77.3723 2183.94
-23.3577 -77.3723 2183.94
-23.9416 -77.3723 2183.94
-24.5255 -77.3723 2183.94
-25.1095 -77.3723 2183.94
-25.6934 -77.3723 2183.94
-26.2774 -77.3723 2183.94
-26.8613 -77.3723 2183.94
-27.2527 -77.6557 2191.94
-27.8388 -77.6557 2191.94
-28.4249 -77.6557 2191.94
-29.011 -77.6557 2191.94
