-158.386 73.0836 1724.5
-158.847 73.0836 1724.5
-159.08 72.8736 1719.54
-159.54 72.8736 1719.54
-160 72.8736 1719.54
-160.46 72.8736 1719.54
-160.92 72.8736 1719.54
-161.379 72.8736 1719.54
-161.839 72.8736 1719.54
-162.299 72.8736 1719.54
-162.759 72.8736 1719.54
-163.218 72.8736 1719.54
-163.438 72.6648 1714.61
-164.138 72.8736 1719.54
-164.598 72.8736 1719.54
-164.814 72.6648 1714.61
-165.272 72.6648 1714.61
-165.731 72.6648 1714.61
-166.189 72.6648 1714.61
-166.648 72.6648 1714.61
-167.106 72.6648 1714.61
-167.564 72.6648 1714.61
-168.023 72.6648 1714.61
-168.481 72.6648 1714.61
-168.94 72.6648 1714.61
-169.398 72.6648 1714.61
-169.857 72.6648 1714.61
-170.315 72.6648 1714.61
-170.774 72.6648 1714.61
-171.232 72.6648 1714.61
-171.691 72.6648 1714.61
-172.149 72.6648 1714.61
-172.607 72.6648 1714.61
-173.066 72.6648 1714.61
-173.524 72.6648 1714.61
-173.983 72.6648 1714.61
-174.441 72.6648 1714.61
-174.9 72.6648 1714.61
-175.358 72.6648 1714.61
-175.817 72.6648 1714.61
-176.275 72.6648 1714.61
-176.734 72.6648 1714.61
-177.192 72.6648 1714.61
-177.65 72.6648 1714.61
-178.109 72.6648 1714.61
-178.851 72.8736 1719.54
17.6796 70.4972 1653.04
17.2376 70.4972 1653.04
16.7956 70.4972 1653.04
16.3536 70.4972 1653.04
15.9116 70.4972 1653.04
15.4696 70.4972 1653.04
14.7658 70.303 1648.48
14.3251 70.303 1648.48
13.8843 70.303 1648.48
13.4435 70.303 1648.48
13.0028 70.303 1648.48
12.8177 70.4972 1653.04
12.3757 70.4972 1653.04
11.9337 70.4972 1653.04
11.4917 70.4972 1653.04
11.0497 70.4972 1653.04
10.8587 70.6925 1657.62
10.4155 70.6925 1657.62
9.9723 70.6925 1657.62
10.0279 71.0864 1666.85
9.58217 71.0864 1666.85
9.13649 71.0864 1666.85
8.93855 71.2849 1671.51
8.7395 71.4846 1676.19
8.29132 71.4846 1676.19
8.08989 71.6854 1680.9
7.64045 71.6854 1680.9
7.43662 71.8873 1685.63
6.98592 71.8873 1685.63
6.77966 72.0904 1690.4
6.32768 72.0904 1690.4
6.11898 72.2946 1695.18
5.66572 72.2946 1695.18
5.45455 72.5 1700
5 72.5 1700
4.78632 72.7066 1704.84
4.33048 72.7066 1704.84
3.87464 72.7066 1704.84
3.4188 72.7066 1704.84
2.96296 72.7066 1704.84
2.74286 72.9143 1709.71
2.28571 72.9143 1709.71
1.82857 72.9143 1709.71
1.60458 73.1232 1714.61
0.914286 72.9143 1709.71
0.687679 73.1232 1714.61
0.229226 73.1232 1714.61
-0 73.3333 1719.54
-0.45977 73.3333 1719.54
-0.91954 73.3333 1719.54
-1.37931 73.3333 1719.54
-1.83908 73.3333 1719.54
-2.29885 73.3333 1719.54
-2.53602 73.5447 1724.5
-2.99712 73.5447 1724.5
-3.45821 73.5447 1724.5
-3.69942 73.7572 1729.48
-4.16185 73.7572 1729.48
-4.62428 73.7572 1729.48
-5.08671 73.7572 1729.48
-5.33333 73.971 1734.49
-5.7971 73.971 1734.49
-6.26087 73.971 1734.49
-6.51163 74.186 1739.53
-6.97674 74.186 1739.53
-7.44186 74.186 1739.53
-7.69679 74.4023 1744.61
-8.16327 74.4023 1744.61
-8.42105 74.6199 1749.71
-9.09621 74.4023 1744.61
-9.35673 74.6199 1749.71
-9.82456 74.6199 1749.71
-10.2924 74.6199 1749.71
-10.5572 74.8387 1754.84
-11.0264 74.8387 1754.84
-11.2941 75.0588 1760
-11.7647 75.0588 1760
-12.0354 75.2802 1765.19
-12.7059 75.0588 1760
-12.9794 75.2802 1765.19
-13.2544 75.503 1770.41
-13.7278 75.503 1770.41
-14.2012 75.503 1770.41
-14.6746 75.503 1770.41
-15.1479 75.503 1770.41
-15.4303 75.727 1775.67
-15.905 75.727 1775.67
-16.1905 75.9524 1780.95
-16.6667 75.9524 1780.95
-17.1429 75.9524 1780.95
-17.619 75.9524 1780.95
-17.9104 76.1791 1786.27
-18.2036 76.4072 1791.62
-18.6826 76.4072 1791.62
-19.1617 76.4072 1791.62
-19.4595 76.6366 1797
-19.9399 76.6366 1797
-20.4204 76.6366 1797
-20.9009 76.6366 1797
-21.2048 76.8675 1802.41
-21.6867 76.8675 1802.41
-21.994 77.0997 1807.85
-22.4773 77.0997 1807.85
-22.9607 77.0997 1807.85
-23.2727 77.3333 1813.33
-23.7576 77.3333 1813.33
-24.2424 77.3333 1813.33
-24.7273 77.3333 1813.33
-25.0456 77.5684 1818.84
-25.5319 77.5684 1818.84
-26.0182 77.5684 1818.84
-26.3415 77.8049 1824.39
-26.8293 77.8049 1824.39
-27.3171 77.8049 1824.39
-27.8049 77.8049 1824.39
-28.2927 77.8049 1824.39
-28.7805 77.8049 1824.39
-29.2683 77.8049 1824.39
-29.6024 78.0428 1829.97
-30.0917 78.0428 1829.97
-30.581 78.0428 1829.97
-31.0703 78.0428 1829.97
-31.5596 78.0428 1829.97
-31.9018 78.2822 1835.58
-32.3926 78.2822 1835.58
-32.8834 78.2822 1835.58
-33.2308 78.5231 1841.23
-33.865 78.2822 1835.58
-34.3558 78.2822 1835.58
-34.4272 79.0093 1852.63
-34.9226 79.0093 1852.63
-35.418 79.0093 1852.63
-36.0494 78.7654 1846.91
-36.4087 79.0093 1852.63
-36.904 79.0093 1852.63
-37.134 79.5016 1864.17
-37.764 79.2547 1858.39
-38.1308 79.5016 1864.17
-38.6293 79.5016 1864.17
-39.1277 79.5016 1864.17
-39.7516 79.2547 1858.39
-40.2484 79.2547 1858.39
-40.5 79.75 1870
-41 79.75 1870
-41.6199 79.5016 1864.17
-41.6404 80.5047 1887.7
-41.039 82.8571 1942.86
-41.0526 83.9474 1968.42
-39.4444 88.6111 2077.78
-37.4908 94.1697 2208.12
-33.0579 105.455 2472.73
-33.3333 106.333 2493.33
-34.5679 105.021 2462.55
-33.1034 110 2579.31
-32.9825 111.93 2624.56
-40.597 95.2239 2232.84
-36.3025 107.227 2514.29
-38.374 103.74 2432.52
-42.9412 93.8235 2200
-45.0704 89.8592 2107.04
-48.9172 81.2739 1905.73
-49.7161 80.5047 1887.7
-50.774 79.0093 1852.63
-51.7073 77.8049 1824.39
-52.1951 77.8049 1824.39
-52.6829 77.8049 1824.39
-53.0887 78.0428 1829.97
-53.6585 77.8049 1824.39
-54.1463 77.8049 1824.39
-54.6341 77.8049 1824.39
-55.1976 77.5684 1818.84
-55.6098 77.8049 1824.39
-56.1702 77.5684 1818.84
-56.6565 77.5684 1818.84
-57.2121 77.3333 1813.33
-57.697 77.3333 1813.33
-58.1818 77.3333 1813.33
-58.6667 77.3333 1813.33
-59.0881 77.5684 1818.84
-59.5745 77.5684 1818.84
-60 77.8049 1824.39
-60.4878 77.8049 1824.39
-60.9756 77.8049 1824.39
-61.4634 77.8049 1824.39
-61.9512 77.8049 1824.39
-62.439 77.8049 1824.39
-62.9268 77.8049 1824.39
-63.465 77.5684 1818.84
-63.9514 77.5684 1818.84
-64.3902 77.8049 1824.39
-64.924 77.5684 1818.84
-65.4103 77.5684 1818.84
-65.8967 77.5684 1818.84
-66.383 77.5684 1818.84
-66.8693 77.5684 1818.84
-67.3171 77.8049 1824.39
-67.8049 77.8049 1824.39
-68.2927 77.8049 1824.39
-68.7805 77.8049 1824.39
-69.2683 77.8049 1824.39
-69.7248 78.0428 1829.97
-70.2736 77.5684 1818.84
-70.8434 76.8675 1802.41
-71.403 76.1791 1786.27
-71.9764 75.2802 1765.19
-72.4927 74.8387 1754.84
-73.0233 74.186 1739.53
-73.526 73.7572 1729.48
-74.0058 73.5447 1724.5
-74.4669 73.5447 1724.5
-74.928 73.5447 1724.5
-75.389 73.5447 1724.5
-75.8621 73.3333 1719.54
-76.3218 73.3333 1719.54
-76.7816 73.3333 1719.54
-77.2414 73.3333 1719.54
-77.7011 73.3333 1719.54
-78.1609 73.3333 1719.54
-78.6207 73.3333 1719.54
-79.0805 73.3333 1719.54
-79.5402 73.3333 1719.54
-80 73.3333 1719.54
-80.4598 73.3333 1719.54
-80.9195 73.3333 1719.54
-81.3793 73.3333 1719.54
-81.8391 73.3333 1719.54
-82.2989 73.3333 1719.54
-82.7586 73.3333 1719.54
-83.2277 73.5447 1724.5
-83.6888 73.5447 1724.5
-84.1499 73.5447 1724.5
-84.6243 73.7572 1729.48
-85.0867 73.7572 1729.48
-85.5491 73.7572 1729.48
-86.0116 73.7572 1729.48
-86.4928 73.971 1734.49
-86.9767 74.186 1739.53
-87.4203 73.971 1734.49
-87.8841 73.971 1734.49
-88.546 75.727 1775.67
-89.1018 76.4072 1791.62
-89.697 77.3333 1813.33
-91.2375 85.3512 2001.34
-91.246 81.5335 1911.82
-95.2697 105.892 2482.99
-93.7143 91.1429 2137.14
-94.8699 94.8699 2224.54
-96 98.1538 2301.54
-96.8093 99.2996 2328.4
-97.5686 100.078 2346.67
-99.4958 107.227 2514.29
-98.5328 98.5328 2310.42
-98.4387 94.8699 2224.54
-98.156 90.4965 2121.99
-98.1443 87.6976 2056.36
-97.6623 82.8571 1942.86
-97.5549 80 1875.86
-97.561 77.8049 1824.39
-97.9394 77.3333 1813.33
-98.4242 77.3333 1813.33
-98.852 77.0997 1807.85
-99.3353 77.0997 1807.85
-99.8788 77.3333 1813.33
-100.302 77.0997 1807.85
-100.785 77.0997 1807.85
-101.333 77.3333 1813.33
-101.752 77.0997 1807.85
-102.303 77.3333 1813.33
-102.788 77.3333 1813.33
-103.202 77.0997 1807.85
-103.686 77.0997 1807.85
-104.169 77.0997 1807.85
-104.653 77.0997 1807.85
-105.136 77.0997 1807.85
-105.619 77.0997 1807.85
-106.103 77.0997 1807.85
-106.586 77.0997 1807.85
-107.069 77.0997 1807.85
-107.553 77.0997 1807.85
-108.036 77.0997 1807.85
-108.52 77.0997 1807.85
-109.091 77.3333 1813.33
-109.576 77.3333 1813.33
-110.061 77.3333 1813.33
-110.545 77.3333 1813.33
-111.508 78.5231 1841.23
-111.902 78.2822 1835.58
-115.2 85.0667 1994.67
-113.5 79.75 1870
-120.902 95.9398 2249.62
-123.636 100.87 2365.22
-127.257 107.679 2524.89
-124.375 99.6875 2337.5
-124.825 99.2996 2328.4
-127.869 104.59 2452.46
-128.926 105.455 2472.73
-128.98 104.163 2442.45
-125.037 94.5185 2216.3
-122.927 88.9199 2085.02
-120.784 83.3987 1955.56
-119.377 79.5016 1864.17
-118.554 76.8675 1802.41
-118.343 75.503 1770.41
-118.029 73.971 1734.49
-118.271 73.5447 1724.5
-118.732 73.5447 1724.5
-119.08 73.3333 1719.54
-119.654 73.5447 1724.5
-120.348 73.971 1734.49
-120.694 73.7572 1729.48
-121.516 74.4023 1744.61
-123.505 77.0997 1807.85
-126.076 80.7595 1893.67
-129.562 85.9259 2014.81
-133.143 91.1429 2137.14
-137.625 97.7778 2292.72
-141.044 102.49 2403.21
-144.538 107.227 2514.29
-137.91 95.2239 2232.84
-146.16 107.679 2524.89
-145.844 105.021 2462.55
-146.502 105.021 2462.55
-147.718 105.892 2482.99
-150.427 109.06 2557.26
-152.982 111.93 2624.56
-151.489 108.596 2546.38
-148.664 103.32 2422.67
-159.628 118.698 2783.26
-161.509 120.377 2822.64
-163.445 122.105 2863.16
-164.615 122.692 2876.92
-163.38 119.812 2809.39
-160.721 114.955 2695.5
-157.931 110 2579.31
-145.848 92.13 2160.29
-145.248 90.4965 2121.99
-148.996 94.8699 2224.54
-148.824 93.8235 2200
-149.412 93.8235 2200
-149.236 92.8 2176
-151.375 94.8699 2224.54
-142.251 82.0579 1924.12
-153.66 96.3019 2258.11
-149.296 89.8592 2107.04
-153.755 94.8699 2224.54
-148.966 88 2063.45
-148.805 87.099 2042.32
-147.733 85.0667 1994.67
-147.148 83.6721 1961.97
-147.895 83.9474 1968.42
-147.752 83.127 1949.19
-151.051 86.5085 2028.47
-155.16 90.8185 2129.54
-159.108 94.8699 2224.54
-161.832 97.4046 2283.97
-163.077 98.1538 2301.54
-160.892 94.8699 2224.54
-157.183 89.8592 2107.04
-153.355 84.7841 1988.04
-150.603 81.0159 1899.68
-149.35 79.0093 1852.63
-147.952 76.8675 1802.41
-147.219 75.503 1770.41
-147.692 75.503 1770.41
-147.965 75.2802 1765.19
-148.235 75.0588 1760
-148.706 75.0588 1760
-148.974 74.8387 1754.84
-149.24 74.6199 1749.71
-149.302 74.186 1739.53
-149.971 74.4023 1744.61
-150.437 74.4023 1744.61
-150.698 74.186 1739.53
-151.163 74.186 1739.53
-151.628 74.186 1739.53
-151.884 73.971 1734.49
-152.348 73.971 1734.49
-152.812 73.971 1734.49
-153.064 73.7572 1729.48
-153.526 73.7572 1729.48
-153.988 73.7572 1729.48
-154.451 73.7572 1729.48
-154.913 73.7572 1729.48
-155.376 73.7572 1729.48
-155.62 73.5447 1724.5
-156.081 73.5447 1724.5
-156.542 73.5447 1724.5
-157.003 73.5447 1724.5
-157.464 73.5447 1724.5
-157.925 73.5447 1724.5
-158.386 73.5447 1724.5
-158.847 73.5447 1724.5
-159.308 73.5447 1724.5
-159.769 73.5447 1724.5
-160 73.3333 1719.54
-160.46 73.3333 1719.54
-160.92 73.3333 1719.54
-161.379 73.3333 1719.54
-161.839 73.3333 1719.54
-162.299 73.3333 1719.54
-162.759 73.3333 1719.54
-163.218 73.3333 1719.54
-163.678 73.3333 1719.54
-164.138 73.3333 1719.54
-164.598 73.3333 1719.54
-165.057 73.3333 1719.54
-165.517 73.3333 1719.54
-165.731 73.1232 1714.61
-166.189 73.1232 1714.61
-166.648 73.1232 1714.61
-167.106 73.1232 1714.61
-167.564 73.1232 1714.61
-168.023 73.1232 1714.61
-168.481 73.1232 1714.61
-168.94 73.1232 1714.61
-169.398 73.1232 1714.61
-169.857 73.1232 1714.61
-170.315 73.1232 1714.61
-170.774 73.1232 1714.61
-171.232 73.1232 1714.61
-171.691 73.1232 1714.61
-172.149 73.1232 1714.61
-172.607 73.1232 1714.61
-173.066 73.1232 1714.61
-173.524 73.1232 1714.61
-173.983 73.1232 1714.61
-174.441 73.1232 1714.61
-174.9 73.1232 1714.61
-175.358 73.1232 1714.61
-175.817 73.1232 1714.61
-176.275 73.1232 1714.61
-176.734 73.1232 1714.61
-177.471 73.3333 1719.54
-177.931 73.3333 1719.54
-178.391 73.3333 1719.54
-178.851 73.3333 1719.54
17.6796 70.9392 1653.04
16.9697 70.7438 1648.48
16.5289 70.7438 1648.48
16.0882 70.7438 1648.48
15.6474 70.7438 1648.48
15.2066 70.7438 1648.48
14.7658 70.7438 1648.48
14.3251 70.7438 1648.48
13.8843 70.7438 1648.48
13.4435 70.7438 1648.48
13.0028 70.7438 1648.48
12.8177 70.9392 1653.04
12.1212 70.7438 1648.48
11.6804 70.7438 1648.48
11.4917 70.9392 1653.04
11.0497 70.9392 1653.04
10.6077 70.9392 1653.04
10.1657 70.9392 1653.04
9.9723 71.1357 1657.62
9.77778 71.3333 1662.22
9.58217 71.532 1666.85
9.38547 71.7318 1671.51
8.93855 71.7318 1671.51
8.49162 71.7318 1671.51
8.29132 71.9328 1676.19
8.08989 72.1348 1680.9
7.64045 72.1348 1680.9
7.43662 72.338 1685.63
7.23164 72.5424 1690.4
6.77966 72.5424 1690.4
6.57224 72.7479 1695.18
6.11898 72.7479 1695.18
5.66572 72.7479 1695.18
5.45455 72.9545 1700
5.24217 73.1624 1704.84
4.78632 73.1624 1704.84
4.33048 73.1624 1704.84
4.11429 73.3714 1709.71
3.4188 73.1624 1704.84
3.2 73.3714 1709.71
2.74286 73.3714 1709.71
2.28571 73.3714 1709.71
1.82857 73.3714 1709.71
1.60458 73.5817 1714.61
1.14613 73.5817 1714.61
0.687679 73.5817 1714.61
0.45977 73.7931 1719.54
-0 73.7931 1719.54
-0.45977 73.7931 1719.54
-0.91954 73.7931 1719.54
-1.37931 73.7931 1719.54
-1.61383 74.0058 1724.5
-2.07493 74.0058 1724.5
-2.53602 74.0058 1724.5
-2.77457 74.2197 1729.48
-3.45821 74.0058 1724.5
-3.69942 74.2197 1729.48
-4.16185 74.2197 1729.48
-4.62428 74.2197 1729.48
-4.86957 74.4348 1734.49
-5.33333 74.4348 1734.49
-5.7971 74.4348 1734.49
-6.26087 74.4348 1734.49
-6.51163 74.6512 1739.53
-6.97674 74.6512 1739.53
-7.23032 74.8688 1744.61
-7.69679 74.8688 1744.61
-8.16327 74.8688 1744.61
-8.62974 74.8688 1744.61
-8.88889 75.0877 1749.71
-9.14956 75.3079 1754.84
-9.61877 75.3079 1754.84
-10.088 75.3079 1754.84
-10.3529 75.5294 1760
-10.8235 75.5294 1760
-11.2941 75.5294 1760
-11.5634 75.7522 1765.19
-12.0354 75.7522 1765.19
-12.5074 75.7522 1765.19
-12.7811 75.9763 1770.41
-13.2544 75.9763 1770.41
-13.7278 75.9763 1770.41
-14.2012 75.9763 1770.41
-14.4807 76.2018 1775.67
-14.9555 76.2018 1775.67
-15.4303 76.2018 1775.67
-15.905 76.2018 1775.67
-16.3798 76.2018 1775.67
-16.6667 76.4286 1780.95
-16.9552 76.6567 1786.27
-17.4328 76.6567 1786.27
-17.7246 76.8862 1791.62
-18.2036 76.8862 1791.62
-18.4985 77.1171 1797
-18.979 77.1171 1797
-19.4595 77.1171 1797
-19.759 77.3494 1802.41
-20.241 77.3494 1802.41
-20.7229 77.3494 1802.41
-21.0272 77.5831 1807.85
-21.5106 77.5831 1807.85
-21.994 77.5831 1807.85
-22.4773 77.5831 1807.85
-22.7879 77.8182 1813.33
-23.2727 77.8182 1813.33
-23.7576 77.8182 1813.33
-24.0729 78.0547 1818.84
-24.5593 78.0547 1818.84
-25.0456 78.0547 1818.84
-25.5319 78.0547 1818.84
-25.8537 78.2927 1824.39
-26.3415 78.2927 1824.39
-26.8293 78.2927 1824.39
-27.3171 78.2927 1824.39
-27.8049 78.2927 1824.39
-28.2927 78.2927 1824.39
-28.7805 78.2927 1824.39
-29.1131 78.5321 1829.97
-29.6024 78.5321 1829.97
-30.0917 78.5321 1829.97
-30.581 78.5321 1829.97
-31.0703 78.5321 1829.97
-31.5596 78.5321 1829.97
-32.0489 78.5321 1829.97
-32.5382 78.5321 1829.97
-32.8834 78.773 1835.58
-33.5168 78.5321 1829.97
-33.7231 79.0154 1841.23
-34.4954 78.5321 1829.97
-34.9847 78.5321 1829.97
-35.0617 79.2593 1846.91
-35.9633 78.5321 1829.97
-36.4526 78.5321 1829.97
-36.6769 79.0154 1841.23
-37.3006 78.773 1835.58
-37.7914 78.773 1835.58
-38.2822 78.773 1835.58
-38.773 78.773 1835.58
-38.7578 79.7516 1858.39
-39.7546 78.773 1835.58
-40.1231 79.0154 1841.23
-40.6154 79.0154 1841.23
-40.6231 80 1864.17
-41.4815 79.2593 1846.91
-41.9753 79.2593 1846.91
-41.8809 80.5016 1875.86
-42.2642 80.7547 1881.76
-41.5584 83.3766 1942.86
-41.3245 85.0331 1981.46
-41.7276 85.3156 1988.04
-40.5556 89.1667 2077.78
-37.0881 98.3908 2292.72
-36.1905 101.905 2374.6
-39.2509 96.1798 2241.2
-40.5882 94.4118 2200
-42.6855 90.742 2114.49
-40.7547 96.9057 2258.11
-45.6376 86.1745 2008.05
-45.1211 88.8581 2070.59
-47.2607 84.7525 1974.92
-47.5748 85.3156 1988.04
-50.0935 80 1864.17
-51.0429 78.773 1835.58
-51.7073 78.2927 1824.39
-52.1951 78.2927 1824.39
-52.5994 78.5321 1829.97
-53.0887 78.5321 1829.97
-53.578 78.5321 1829.97
-54.0673 78.5321 1829.97
-54.5566 78.5321 1829.97
-55.0459 78.5321 1829.97
-55.6098 78.2927 1824.39
-56.1702 78.0547 1818.84
-56.6565 78.0547 1818.84
-57.2121 77.8182 1813.33
-57.697 77.8182 1813.33
-58.2477 77.5831 1807.85
-58.6667 77.8182 1813.33
-59.0881 78.0547 1818.84
-59.5745 78.0547 1818.84
-60 78.2927 1824.39
-60.4878 78.2927 1824.39
-60.9756 78.2927 1824.39
-61.4067 78.5321 1829.97
-61.896 78.5321 1829.97
-62.3853 78.5321 1829.97
-62.8746 78.5321 1829.97
-63.3639 78.5321 1829.97
-63.9024 78.2927 1824.39
-64.3425 78.5321 1829.97
-64.924 78.0547 1818.84
-65.3211 78.5321 1829.97
-65.8104 78.5321 1829.97
-66.3415 78.2927 1824.39
-66.8293 78.2927 1824.39
-67.2783 78.5321 1829.97
-67.7676 78.5321 1829.97
-68.2927 78.2927 1824.39
-68.7462 78.5321 1829.97
-69.2025 78.773 1835.58
-69.7248 78.5321 1829.97
-70.2736 78.0547 1818.84
-70.7879 77.8182 1813.33
-71.403 76.6567 1786.27
-71.9527 75.9763 1770.41
-72.4927 75.3079 1754.84
-73.0233 74.6512 1739.53
-73.526 74.2197 1729.48
-74.0058 74.0058 1724.5
-74.4669 74.0058 1724.5
-74.928 74.0058 1724.5
-75.389 74.0058 1724.5
-75.8621 73.7931 1719.54
-76.3218 73.7931 1719.54
-76.7816 73.7931 1719.54
-77.2414 73.7931 1719.54
-77.7011 73.7931 1719.54
-78.1609 73.7931 1719.54
-78.6207 73.7931 1719.54
-79.0805 73.7931 1719.54
-79.5402 73.7931 1719.54
-80 73.7931 1719.54
-80.4598 73.7931 1719.54
-80.9195 73.7931 1719.54
-81.3793 73.7931 1719.54
-81.8391 73.7931 1719.54
-82.2989 73.7931 1719.54
-82.7586 73.7931 1719.54
-83.2184 73.7931 1719.54
-83.6888 74.0058 1724.5
-84.1499 74.0058 1724.5
-84.6243 74.2197 1729.48
-85.0867 74.2197 1729.48
-85.5491 74.2197 1729.48
-86.0116 74.2197 1729.48
-86.4928 74.4348 1734.49
-86.9971 74.8688 1744.61
-87.4203 74.4348 1734.49
-87.8841 74.4348 1734.49
-88.597 76.6567 1786.27
-89.1566 77.3494 1802.41
-89.7264 78.0547 1818.84
-90.3704 79.2593 1846.91
-91.1041 81.0095 1887.7
-91.9481 83.3766 1942.86
-92.0755 80.7547 1881.76
-94.2857 91.7143 2137.14
-94.5965 90.1053 2099.65
-95.8242 94.0659 2191.94
-97.5686 100.706 2346.67
-96.6906 92.3741 2152.52
-97.0819 91.3879 2129.54
-96.8136 87.0508 2028.47
-97.1812 86.1745 2008.05
-97.0874 83.1068 1936.57
-97.1069 80.7547 1881.76
-97.2308 79.0154 1841.23
-97.6147 78.5321 1829.97
-97.9939 78.0547 1818.84
-98.4242 77.8182 1813.33
-98.9666 78.0547 1818.84
-99.4529 78.0547 1818.84
-99.9392 78.0547 1818.84
-100.426 78.0547 1818.84
-100.912 78.0547 1818.84
-101.398 78.0547 1818.84
-101.818 77.8182 1813.33
-102.303 77.8182 1813.33
-102.788 77.8182 1813.33
-103.273 77.8182 1813.33
-103.758 77.8182 1813.33
-104.242 77.8182 1813.33
-104.727 77.8182 1813.33
-105.212 77.8182 1813.33
-105.697 77.8182 1813.33
-106.182 77.8182 1813.33
-106.667 77.8182 1813.33
-107.152 77.8182 1813.33
-107.636 77.8182 1813.33
-108.121 77.8182 1813.33
-108.606 77.8182 1813.33
-109.179 78.0547 1818.84
-109.666 78.0547 1818.84
-110.061 77.8182 1813.33
-110.545 77.8182 1813.33
-111.315 78.5321 1829.97
-112.602 80.5016 1875.86
-112.393 78.773 1835.58
-116.094 86.4646 2014.81
-114.76 82.0447 1911.82
-122.791 99.5349 2319.38
-124.444 101.905 2374.6
-120.571 91.7143 2137.14
-123.969 98.0153 2283.97
-124.923 98.7692 2301.54
-125.538 98.7692 2301.54
-123.321 92.7076 2160.29
-122.817 90.4225 2107.04
-121.481 86.4646 2014.81
-119 80.25 1870
-119.133 79.5046 1852.63
-118.554 77.3494 1802.41
-119.036 77.3494 1802.41
-118.932 76.2018 1775.67
-118.493 74.4348 1734.49
-118.732 74.0058 1724.5
-119.08 73.7931 1719.54
-119.654 74.0058 1724.5
-120.231 74.2197 1729.48
-121.534 75.7522 1765.19
-121.882 75.5294 1760
-123.505 77.5831 1807.85
-125.643 80.5016 1875.86
-126 80.25 1870
-126.646 80.5016 1875.86
-134.493 93.0435 2168.12
-137.358 96.9057 2258.11
-129.548 82.8387 1930.32
-141.833 102.311 2384.06
-133.153 87.0508 2028.47
-133.154 86.1745 2008.05
-134.422 87.3469 2035.37
-140.752 96.5414 2249.62
-136.667 89.1667 2077.78
-133.681 83.6482 1949.19
-145 100.312 2337.5
-146.403 101.502 2365.22
-138.483 88.5517 2063.45
-157.818 116.727 2720
-161.127 120.563 2809.39
-162.264 121.132 2822.64
-165.437 124.66 2904.85
-166.634 125.268 2919.02
-166.99 124.66 2904.85
-166.095 122.286 2849.52
-164.055 118.341 2757.6
-162.883 115.676 2695.5
-161.762 113.128 2636.12
-161.039 111.169 2590.48
-152.896 99.1506 2310.42
-154.086 99.9222 2328.4
-162.403 110.215 2568.24
-157.44 102.72 2393.6
-156.25 100.312 2337.5
-165.195 111.169 2590.48
-164.786 109.744 2557.26
-158.431 100.706 2346.67
-159.684 101.502 2365.22
-149.828 88.2474 2056.36
-151.608 89.7902 2092.31
-148.344 85.0331 1981.46
-147.314 83.1068 1936.57
-149.175 84.7525 1974.92
-150.166 85.3156 1988.04
-154.406 89.7902 2092.31
-146.584 79.7516 1858.39
-158.832 93.7226 2183.94
-156.62 90.4225 2107.04
-155.586 88.5517 2063.45
-151.456 83.1068 1936.57
-150.38 81.2658 1893.67
-148.923 79.0154 1841.23
-148.157 77.5831 1807.85
-147.821 76.6567 1786.27
-148.095 76.4286 1780.95
-148.166 75.9763 1770.41
-148.437 75.7522 1765.19
-148.706 75.5294 1760
-148.974 75.3079 1754.84
-149.443 75.3079 1754.84
-149.708 75.0877 1749.71
-149.971 74.8688 1744.61
-150.437 74.8688 1744.61
-150.904 74.8688 1744.61
-151.163 74.6512 1739.53
-151.628 74.6512 1739.53
-152.093 74.6512 1739.53
-152.348 74.4348 1734.49
-152.812 74.4348 1734.49
-153.275 74.4348 1734.49
-153.739 74.4348 1734.49
-154.203 74.4348 1734.49
-154.667 74.4348 1734.49
-154.913 74.2197 1729.48
-155.376 74.2197 1729.48
-155.838 74.2197 1729.48
-156.301 74.2197 1729.48
-156.763 74.2197 1729.48
-157.225 74.2197 1729.48
-157.688 74.2197 1729.48
-158.15 74.2197 1729.48
-158.613 74.2197 1729.48
-158.847 74.0058 1724.5
-159.308 74.0058 1724.5
-159.769 74.0058 1724.5
-160.231 74.0058 1724.5
-160.692 74.0058 1724.5
-161.153 74.0058 1724.5
-161.379 73.7931 1719.54
-161.839 73.7931 1719.54
-162.299 73.7931 1719.54
-162.759 73.7931 1719.54
-163.218 73.7931 1719.54
-163.678 73.7931 1719.54
-164.138 73.7931 1719.54
-164.598 73.7931 1719.54
-165.057 73.7931 1719.54
-165.517 73.7931 1719.54
-165.977 73.7931 1719.54
-166.437 73.7931 1719.54
-166.897 73.7931 1719.54
-167.356 73.7931 1719.54
-167.816 73.7931 1719.54
-168.023 73.5817 1714.61
-168.736 73.7931 1719.54
-169.195 73.7931 1719.54
-169.655 73.7931 1719.54
-169.857 73.5817 1714.61
-170.575 73.7931 1719.54
-171.034 73.7931 1719.54
-171.494 73.7931 1719.54
-171.954 73.7931 1719.54
-172.149 73.5817 1714.61
-172.874 73.7931 1719.54
-173.333 73.7931 1719.54
-173.793 73.7931 1719.54
-173.983 73.5817 1714.61
-174.713 73.7931 1719.54
-175.172 73.7931 1719.54
-175.632 73.7931 1719.54
-176.092 73.7931 1719.54
-176.552 73.7931 1719.54
-177.011 73.7931 1719.54
-177.471 73.7931 1719.54
-177.931 73.7931 1719.54
-178.391 73.7931 1719.54
-178.851 73.7931 1719.54
17.4105 71.1846 1648.48
16.9697 71.1846 1648.48
16.5289 71.1846 1648.48
16.0882 71.1846 1648.48
15.6474 71.1846 1648.48
15.2066 71.1846 1648.48
14.7658 71.1846 1648.48
14.3251 71.1846 1648.48
13.8843 71.1846 1648.48
13.4435 71.1846 1648.48
13.2597 71.3812 1653.04
12.8177 71.3812 1653.04
12.1212 71.1846 1648.48
11.9337 71.3812 1653.04
11.4917 71.3812 1653.04
11.0497 71.3812 1653.04
10.6077 71.3812 1653.04
10.1657 71.3812 1653.04
9.9723 71.5789 1657.62
10.0279 71.9777 1666.85
9.58217 71.9777 1666.85
9.13649 71.9777 1666.85
8.93855 72.1788 1671.51
8.7395 72.381 1676.19
8.29132 72.381 1676.19
8.08989 72.5843 1680.9
7.88732 72.7887 1685.63
7.43662 72.7887 1685.63
7.23164 72.9944 1690.4
6.77966 72.9944 1690.4
6.57224 73.2011 1695.18
6.36364 73.4091 1700
5.90909 73.4091 1700
5.69801 73.6182 1704.84
5.24217 73.6182 1704.84
5.02857 73.8286 1709.71
4.57143 73.8286 1709.71
4.11429 73.8286 1709.71
3.65714 73.8286 1709.71
3.4384 74.0401 1714.61
2.97994 74.0401 1714.61
2.52149 74.0401 1714.61
2.06304 74.0401 1714.61
1.60458 74.0401 1714.61
1.37931 74.2529 1719.54
0.91954 74.2529 1719.54
0.45977 74.2529 1719.54
-0 74.2529 1719.54
-0.45977 74.2529 1719.54
-0.691643 74.4669 1724.5
-1.15274 74.4669 1724.5
-1.61383 74.4669 1724.5
-2.07493 74.4669 1724.5
-2.31214 74.6821 1729.48
-2.77457 74.6821 1729.48
-3.23699 74.6821 1729.48
-3.69942 74.6821 1729.48
-4.16185 74.6821 1729.48
-4.4058 74.8986 1734.49
-4.86957 74.8986 1734.49
-5.33333 74.8986 1734.49
-5.7971 74.8986 1734.49
-6.04651 75.1163 1739.53
-6.51163 75.1163 1739.53
-6.97674 75.1163 1739.53
-7.23032 75.3353 1744.61
-7.69679 75.3353 1744.61
-7.95322 75.5556 1749.71
-8.42105 75.5556 1749.71
-8.68035 75.7771 1754.84
-9.14956 75.7771 1754.84
-9.61877 75.7771 1754.84
-10.2924 75.5556 1749.71
-10.3529 76 1760
-10.8235 76 1760
-11.0914 76.2242 1765.19
-11.5634 76.2242 1765.19
-12.0354 76.2242 1765.19
-12.5074 76.2242 1765.19
-12.7811 76.4497 1770.41
-13.2544 76.4497 1770.41
-13.7278 76.4497 1770.41
-14.2012 76.4497 1770.41
-14.8673 76.2242 1765.19
-14.9555 76.6766 1775.67
-15.4303 76.6766 1775.67
-15.905 76.6766 1775.67
-16.3798 76.6766 1775.67
-16.4776 77.1343 1786.27
-17.1429 76.9048 1780.95
-17.2455 77.3653 1791.62
-17.7246 77.3653 1791.62
-18.3881 77.1343 1786.27
-18.6826 77.3653 1791.62
-18.979 77.5976 1797
-19.4595 77.5976 1797
-19.759 77.8313 1802.41
-20.241 77.8313 1802.41
-20.5438 78.0665 1807.85
-21.0272 78.0665 1807.85
-21.5106 78.0665 1807.85
-21.8182 78.303 1813.33
-22.4773 78.0665 1807.85
-22.9607 78.0665 1807.85
-23.1003 78.541 1818.84
-23.7576 78.303 1813.33
-24.0729 78.541 1818.84
-24.7273 78.303 1813.33
-25.0456 78.541 1818.84
-25.5319 78.541 1818.84
-26.0182 78.541 1818.84
-26.5046 78.541 1818.84
-26.9909 78.541 1818.84
-27.4772 78.541 1818.84
-27.8049 78.7805 1824.39
-28.4498 78.541 1818.84
-28.7805 78.7805 1824.39
-29.2683 78.7805 1824.39
-29.7561 78.7805 1824.39
-30.2439 78.7805 1824.39
-30.7317 78.7805 1824.39
-31.2195 78.7805 1824.39
-31.7073 78.7805 1824.39
-32.0489 79.0214 1829.97
-32.6829 78.7805 1824.39
-33.0275 79.0214 1829.97
-33.5168 79.0214 1829.97
-34.0061 79.0214 1829.97
-34.4954 79.0214 1829.97
-34.9847 79.0214 1829.97
-35.474 79.0214 1829.97
-35.8282 79.2638 1835.58
-36.4526 79.0214 1829.97
-36.9419 79.0214 1829.97
-37.4312 79.0214 1829.97
-37.9205 79.0214 1829.97
-38.4098 79.0214 1829.97
-38.8991 79.0214 1829.97
-39.3884 79.0214 1829.97
-39.5062 79.7531 1846.91
-40.367 79.0214 1829.97
-40.8563 79.0214 1829.97
-41.227 79.2638 1835.58
-41.7178 79.2638 1835.58
-41.8576 80 1852.63
-42.8135 79.0214 1829.97
-43.1902 79.2638 1835.58
-44.0122 78.541 1818.84
-44.0615 79.5077 1841.23
-44.2236 80.2484 1858.39
-44.3887 81.0031 1875.86
-39.8566 92.6165 2144.8
-39.708 94.3066 2183.94
-43.9735 85.5629 1981.46
-43.9057 87.0034 2014.81
-40.1509 97.5094 2258.11
-44.5051 88.1911 2042.32
-44.0702 90.6667 2099.65
-48.6957 80.2484 1858.39
-49.3827 79.7531 1846.91
-49.1139 81.7722 1893.67
-50.7317 78.7805 1824.39
-51.307 78.541 1818.84
-51.7933 78.541 1818.84
-52.2796 78.541 1818.84
-52.6829 78.7805 1824.39
-53.1707 78.7805 1824.39
-53.578 79.0214 1829.97
-54.0673 79.0214 1829.97
-54.5566 79.0214 1829.97
-55.122 78.7805 1824.39
-55.6098 78.7805 1824.39
-56.1702 78.541 1818.84
-56.7273 78.303 1813.33
-57.2121 78.303 1813.33
-57.8313 77.8313 1802.41
-58.2477 78.0665 1807.85
-58.7952 77.8313 1802.41
-59.0881 78.541 1818.84
-59.6979 78.0665 1807.85
-60.1212 78.303 1813.33
-60.4878 78.7805 1824.39
-60.9756 78.7805 1824.39
-61.4634 78.7805 1824.39
-61.9512 78.7805 1824.39
-62.4924 78.541 1818.84
-62.9268 78.7805 1824.39
-63.3639 79.0214 1829.97
-63.8532 79.0214 1829.97
-64.3425 79.0214 1829.97
-64.8318 79.0214 1829.97
-65.3211 79.0214 1829.97
-65.8104 79.0214 1829.97
-66.2997 79.0214 1829.97
-66.789 79.0214 1829.97
-67.2783 79.0214 1829.97
-67.7676 79.0214 1829.97
-68.2569 79.0214 1829.97
-68.7805 78.7805 1824.39
-69.2355 79.0214 1829.97
-69.7561 78.7805 1824.39
-70.2736 78.541 1818.84
-70.8157 78.0665 1807.85
-71.3772 77.3653 1791.62
-72.0235 75.7771 1754.84
-72.4927 75.7771 1754.84
-73.0029 75.3353 1744.61
-73.526 74.6821 1729.48
-74.0058 74.4669 1724.5
-74.4669 74.4669 1724.5
-74.928 74.4669 1724.5
-75.389 74.4669 1724.5
-75.8621 74.2529 1719.54
-76.3218 74.2529 1719.54
-76.7816 74.2529 1719.54
-77.2414 74.2529 1719.54
-77.7011 74.2529 1719.54
-78.1609 74.2529 1719.54
-78.6207 74.2529 1719.54
-79.0805 74.2529 1719.54
-79.5402 74.2529 1719.54
-80 74.2529 1719.54
-80.4598 74.2529 1719.54
-80.9195 74.2529 1719.54
-81.3793 74.2529 1719.54
-81.8391 74.2529 1719.54
-82.2989 74.2529 1719.54
-82.7586 74.2529 1719.54
-83.2184 74.2529 1719.54
-83.6888 74.4669 1724.5
-84.1499 74.4669 1724.5
-84.6243 74.6821 1729.48
-85.0867 74.6821 1729.48
-85.5491 74.6821 1729.48
-86.0116 74.6821 1729.48
-86.4928 74.8986 1734.49
-87.0175 75.5556 1749.71
-87.5294 76 1760
-87.907 75.1163 1739.53
-88.6228 77.3653 1791.62
-89.1843 78.0665 1807.85
-89.7561 78.7805 1824.39
-90.3385 79.5077 1841.23
-91 80.75 1870
-91.9094 83.6246 1936.57
-92.4272 83.6246 1936.57
-93.2013 85.2805 1974.92
-94.0067 87.0034 2014.81
-94.9481 89.4118 2070.59
-94.9333 86.1333 1994.67
-96 89.1034 2063.45
-97.0213 91.6312 2121.99
-96.3158 85 1968.42
-96.7869 84.7213 1961.97
-96.5 80.75 1870
-96.7901 79.7531 1846.91
-97.3375 80 1852.63
-97.5076 78.541 1818.84
-97.9939 78.541 1818.84
-98.4802 78.541 1818.84
-98.9666 78.541 1818.84
-99.4529 78.541 1818.84
-99.8788 78.303 1813.33
-100.364 78.303 1813.33
-100.912 78.541 1818.84
-101.333 78.303 1813.33
-101.884 78.541 1818.84
-102.303 78.303 1813.33
-102.788 78.303 1813.33
-103.273 78.303 1813.33
-103.758 78.303 1813.33
-104.242 78.303 1813.33
-104.727 78.303 1813.33
-105.212 78.303 1813.33
-105.697 78.303 1813.33
-106.182 78.303 1813.33
-106.667 78.303 1813.33
-107.152 78.303 1813.33
-107.636 78.303 1813.33
-108.121 78.303 1813.33
-108.693 78.541 1818.84
-109.179 78.541 1818.84
-109.666 78.541 1818.84
-110.152 78.541 1818.84
-110.638 78.541 1818.84
-111.03 78.303 1813.33
-111.902 79.2638 1835.58
-112.492 79.5077 1841.23
-113.086 79.7531 1846.91
-113.684 80 1852.63
-114.717 81.2579 1881.76
-115.669 82.293 1905.73
-120.717 92.6165 2144.8
-118.4 86.1333 1994.67
-121.272 91.3074 2114.49
-117 80.75 1870
-121.379 89.1034 2063.45
-121.787 88.7973 2056.36
-121.067 86.1333 1994.67
-119.745 82.293 1905.73
-119.5 80.75 1870
-118.788 78.303 1813.33
-119.036 77.8313 1802.41
-118.363 75.5556 1749.71
-118.605 75.1163 1739.53
-118.844 74.6821 1729.48
-119.535 75.1163 1739.53
-119.654 74.4669 1724.5
-120.348 74.8986 1734.49
-121.534 76.2242 1765.19
-122.381 76.9048 1780.95
-123.373 77.8313 1802.41
-123.855 77.8313 1802.41
-127.331 83.0868 1924.12
-127.54 82.5559 1911.82
-125.994 79.0214 1829.97
-133.147 90.3497 2092.31
-126.972 79.0214 1829.97
-128.805 81.2579 1881.76
-135.603 91.6312 2121.99
-135.972 91.3074 2114.49
-133.333 86.1333 1994.67
-130.5 80.75 1870
-131.81 82.0317 1899.68
-133.506 83.8961 1942.86
-134.379 84.4444 1955.56
-136 86.1333 1994.67
-136.913 86.7114 2008.05
-141.805 93.2852 2160.29
-160.748 120.748 2796.26
-161.878 121.315 2809.39
-164.615 124.231 2876.92
-165.797 124.831 2890.82
-157.576 111.861 2590.48
-166.507 123.636 2863.16
-164.444 119.63 2770.37
-166.385 121.315 2809.39
-166.326 120.186 2783.26
-155.789 104.615 2422.67
-165.818 117.455 2720
-161.368 110.427 2557.26
-167.273 117.455 2720
-160.332 107.22 2482.99
-169.132 117.991 2732.42
-162.689 108.571 2514.29
-158.11 101.732 2355.91
-168.496 114.336 2647.79
-165.063 109.03 2524.89
-160.635 102.54 2374.6
-150.865 89.4118 2070.59
-147.013 83.8961 1942.86
-147.752 84.1694 1949.19
-145.705 81.0031 1875.86
-145.794 80.4984 1864.17
-147.987 82.5559 1911.82
-147.848 81.7722 1893.67
-153.72 88.1911 2042.32
-152.776 86.4214 2001.34
-151.869 84.7213 1961.97
-149 80.75 1870
-148.642 79.7531 1846.91
-148.712 79.2638 1835.58
-148.157 78.0665 1807.85
-148.024 77.3653 1791.62
-148.095 76.9048 1780.95
-148.166 76.4497 1770.41
-148.437 76.2242 1765.19
-148.706 76 1760
-148.974 75.7771 1754.84
-149.443 75.7771 1754.84
-149.912 75.7771 1754.84
-150.175 75.5556 1749.71
-150.643 75.5556 1749.71
-150.904 75.3353 1744.61
-151.163 75.1163 1739.53
-151.837 75.3353 1744.61
-152.093 75.1163 1739.53
-152.558 75.1163 1739.53
-153.023 75.1163 1739.53
-153.275 74.8986 1734.49
-153.739 74.8986 1734.49
-154.203 74.8986 1734.49
-154.667 74.8986 1734.49
-155.13 74.8986 1734.49
-155.376 74.6821 1729.48
-155.838 74.6821 1729.48
-156.301 74.6821 1729.48
-156.763 74.6821 1729.48
-157.225 74.6821 1729.48
-157.688 74.6821 1729.48
-158.15 74.6821 1729.48
-158.613 74.6821 1729.48
-159.075 74.6821 1729.48
-159.538 74.6821 1729.48
-159.769 74.4669 1724.5
-160.231 74.4669 1724.5
-160.692 74.4669 1724.5
-161.153 74.4669 1724.5
-161.614 74.4669 1724.5
-162.075 74.4669 1724.5
-162.536 74.4669 1724.5
-162.997 74.4669 1724.5
-163.458 74.4669 1724.5
-163.919 74.4669 1724.5
-164.38 74.4669 1724.5
-164.841 74.4669 1724.5
-165.057 74.2529 1719.54
-165.764 74.4669 1724.5
-166.225 74.4669 1724.5
-166.686 74.4669 1724.5
-166.897 74.2529 1719.54
-167.356 74.2529 1719.54
-167.816 74.2529 1719.54
-168.276 74.2529 1719.54
-168.736 74.2529 1719.54
-169.195 74.2529 1719.54
-169.655 74.2529 1719.54
-169.857 74.0401 1714.61
-170.575 74.2529 1719.54
-171.034 74.2529 1719.54
-171.494 74.2529 1719.54
-171.954 74.2529 1719.54
-172.149 74.0401 1714.61
-172.874 74.2529 1719.54
-173.333 74.2529 1719.54
-173.793 74.2529 1719.54
-174.253 74.2529 1719.54
-174.713 74.2529 1719.54
-175.172 74.2529 1719.54
-175.632 74.2529 1719.54
-176.092 74.2529 1719.54
-176.552 74.2529 1719.54
-177.011 74.2529 1719.54
-177.471 74.2529 1719.54
-177.931 74.2529 1719.54
-178.391 74.2529 1719.54
-178.851 74.2529 1719.54
17.1429 71.4286 1643.96
16.7033 71.4286 1643.96
16.2637 71.4286 1643.96
16.0882 71.6253 1648.48
15.3846 71.4286 1643.96
15.2066 71.6253 1648.48
14.7658 71.6253 1648.48
14.3251 71.6253 1648.48
14.1436 71.8232 1653.04
13.7017 71.8232 1653.04
13.0028 71.6253 1648.48
13.0748 72.0222 1657.62
12.1212 71.6253 1648.48
11.6804 71.6253 1648.48
11.2397 71.6253 1648.48
11.0497 71.8232 1653.04
10.6077 71.8232 1653.04
10.1657 71.8232 1653.04
9.9723 72.0222 1657.62
10.0279 72.4234 1666.85
9.33333 72.2222 1662.22
9.13649 72.4234 1666.85
8.93855 72.6257 1671.51
8.7395 72.8291 1676.19
8.29132 72.8291 1676.19
8.08989 73.0337 1680.9
7.88732 73.2394 1685.63
7.43662 73.2394 1685.63
7.23164 73.4463 1690.4
7.0255 73.6544 1695.18
6.57224 73.6544 1695.18
6.36364 73.8636 1700
5.90909 73.8636 1700
5.69801 74.0741 1704.84
5.48571 74.2857 1709.71
5.02857 74.2857 1709.71
4.57143 74.2857 1709.71
4.3553 74.4986 1714.61
3.65714 74.2857 1709.71
3.4384 74.4986 1714.61
2.74286 74.2857 1709.71
2.52149 74.4986 1714.61
2.06304 74.4986 1714.61
1.83908 74.7126 1719.54
1.37931 74.7126 1719.54
0.91954 74.7126 1719.54
0.45977 74.7126 1719.54
0.230548 74.928 1724.5
-0.230548 74.928 1724.5
-0.691643 74.928 1724.5
-1.15274 74.928 1724.5
-1.61383 74.928 1724.5
-2.07493 74.928 1724.5
-2.53602 74.928 1724.5
-2.77457 75.1445 1729.48
-3.23699 75.1445 1729.48
-3.69942 75.1445 1729.48
-3.94203 75.3623 1734.49
-4.4058 75.3623 1734.49
-4.86957 75.3623 1734.49
-5.33333 75.3623 1734.49
-5.7971 75.3623 1734.49
-6.04651 75.5814 1739.53
-6.51163 75.5814 1739.53
-6.76385 75.8017 1744.61
-7.23032 75.8017 1744.61
-7.48538 76.0234 1749.71
-8.16327 75.8017 1744.61
-8.21114 76.2463 1754.84
-8.68035 76.2463 1754.84
-9.14956 76.2463 1754.84
-9.61877 76.2463 1754.84
-9.88235 76.4706 1760
-10.3529 76.4706 1760
-10.8235 76.4706 1760
-11.0914 76.6962 1765.19
-11.5634 76.6962 1765.19
-12.0354 76.6962 1765.19
-12.3077 76.9231 1770.41
-12.7811 76.9231 1770.41
-13.4513 76.6962 1765.19
-13.5312 77.1513 1775.67
-14.0059 77.1513 1775.67
-14.4807 77.1513 1775.67
-14.9555 77.1513 1775.67
-15.4303 77.1513 1775.67
-15.7143 77.381 1780.95
-16.1905 77.381 1780.95
-16.6667 77.381 1780.95
-16.9552 77.6119 1786.27
-17.2455 77.8443 1791.62
-17.7246 77.8443 1791.62
-18.018 78.0781 1797
-18.4985 78.0781 1797
-18.979 78.0781 1797
-19.2771 78.3133 1802.41
-19.577 78.5498 1807.85
-20.0604 78.5498 1807.85
-20.7229 78.3133 1802.41
-21.0272 78.5498 1807.85
-21.3333 78.7879 1813.33
-21.8182 78.7879 1813.33
-22.1277 79.0274 1818.84
-22.9607 78.5498 1807.85
-23.1003 79.0274 1818.84
-23.9275 78.5498 1807.85
-24.0729 79.0274 1818.84
-24.5593 79.0274 1818.84
-25.0456 79.0274 1818.84
-25.697 78.7879 1813.33
-26.0182 79.0274 1818.84
-26.5046 79.0274 1818.84
-27.1515 78.7879 1813.33
-27.6364 78.7879 1813.33
-28.1212 78.7879 1813.33
-28.4498 79.0274 1818.84
-29.0909 78.7879 1813.33
-29.5758 78.7879 1813.33
-29.9088 79.0274 1818.84
-30.5455 78.7879 1813.33
-31.0303 78.7879 1813.33
-31.5152 78.7879 1813.33
-31.8541 79.0274 1818.84
-32.3404 79.0274 1818.84
-32.8267 79.0274 1818.84
-33.1707 79.2683 1824.39
-33.6585 79.2683 1824.39
-34.0061 79.5107 1829.97
-34.4954 79.5107 1829.97
-34.9847 79.5107 1829.97
-35.474 79.5107 1829.97
-35.9633 79.5107 1829.97
-36.4526 79.5107 1829.97
-37.0732 79.2683 1824.39
-37.3006 79.7546 1835.58
-37.7914 79.7546 1835.58
-38.4098 79.5107 1829.97
-38.773 79.7546 1835.58
-39.2638 79.7546 1835.58
-39.7546 79.7546 1835.58
-40.2454 79.7546 1835.58
-40.8563 79.5107 1829.97
-41.3456 79.5107 1829.97
-41.8349 79.5107 1829.97
-41.9753 80.2469 1846.91
-42.8135 79.5107 1829.97
-43.3028 79.5107 1829.97
-43.9024 79.2683 1824.39
-44.3902 79.2683 1824.39
-43.5443 82.2785 1893.67
-45.3659 79.2683 1824.39
-45.8537 79.2683 1824.39
-46.3415 79.2683 1824.39
-46.8293 79.2683 1824.39
-47.3171 79.2683 1824.39
-47.8049 79.2683 1824.39
-48.2927 79.2683 1824.39
-48.7805 79.2683 1824.39
-49.2683 79.2683 1824.39
-49.7561 79.2683 1824.39
-49.0159 82.5397 1899.68
-50.8207 79.0274 1818.84
-51.307 79.0274 1818.84
-51.7073 79.2683 1824.39
-52.1951 79.2683 1824.39
-52.5994 79.5107 1829.97
-53.0887 79.5107 1829.97
-53.7386 79.0274 1818.84
-54.2249 79.0274 1818.84
-54.6341 79.2683 1824.39
-55.1976 79.0274 1818.84
-55.6839 79.0274 1818.84
-56.2424 78.7879 1813.33
-56.9369 78.0781 1797
-57.4174 78.0781 1797
-58.0299 77.6119 1786.27
-58.4431 77.8443 1791.62
-58.9222 77.8443 1791.62
-59.4012 77.8443 1791.62
-59.759 78.3133 1802.41
-60.3003 78.0781 1797
-60.6061 78.7879 1813.33
-61.0909 78.7879 1813.33
-61.5758 78.7879 1813.33
-62.0061 79.0274 1818.84
-62.4924 79.0274 1818.84
-62.9268 79.2683 1824.39
-63.4146 79.2683 1824.39
-63.8532 79.5107 1829.97
-64.3902 79.2683 1824.39
-64.878 79.2683 1824.39
-65.3211 79.5107 1829.97
-65.8537 79.2683 1824.39
-66.2997 79.5107 1829.97
-66.8293 79.2683 1824.39
-67.3171 79.2683 1824.39
-67.7676 79.5107 1829.97
-68.3988 78.5498 1807.85
-68.8146 79.0274 1818.84
-69.2025 79.7546 1835.58
-69.7561 79.2683 1824.39
-70.303 78.7879 1813.33
-70.8157 78.5498 1807.85
-71.3253 78.3133 1802.41
-71.9527 76.9231 1770.41
-72.4706 76.4706 1760
-73.0029 75.8017 1744.61
-73.526 75.1445 1729.48
-74.0058 74.928 1724.5
-74.4669 74.928 1724.5
-74.928 74.928 1724.5
-75.389 74.928 1724.5
-75.8621 74.7126 1719.54
-76.3218 74.7126 1719.54
-76.7816 74.7126 1719.54
-77.2414 74.7126 1719.54
-77.7011 74.7126 1719.54
-78.1609 74.7126 1719.54
-78.6207 74.7126 1719.54
-79.0805 74.7126 1719.54
-79.5402 74.7126 1719.54
-80 74.7126 1719.54
-80.4598 74.7126 1719.54
-80.9195 74.7126 1719.54
-81.3793 74.7126 1719.54
-81.8391 74.7126 1719.54
-82.2989 74.7126 1719.54
-82.7586 74.7126 1719.54
-83.2184 74.7126 1719.54
-83.6888 74.928 1724.5
-84.1499 74.928 1724.5
-84.6243 75.1445 1729.48
-85.0867 75.1445 1729.48
-85.5491 75.1445 1729.48
-86.0116 75.1445 1729.48
-86.4928 75.3623 1734.49
-87.0175 76.0234 1749.71
-87.5294 76.4706 1760
-88.0952 77.381 1780.95
-88.6486 78.0781 1797
-89.2121 78.7879 1813.33
-89.7859 79.5107 1829.97
-90.3385 80 1841.23
-90.8978 80.4954 1852.63
-91.4642 80.9969 1864.17
-92.2293 82.8025 1905.73
-92.5786 81.761 1881.76
-93.0818 81.761 1881.76
-93.5849 81.761 1881.76
-94.5455 84.4156 1942.86
-94.5455 81.5047 1875.86
-95 81.25 1870
-95.746 82.5397 1899.68
-95.9006 80.7453 1858.39
-96.1468 79.5107 1829.97
-96.5854 79.2683 1824.39
-97.0213 79.0274 1818.84
-97.4545 78.7879 1813.33
-97.9394 78.7879 1813.33
-98.4242 78.7879 1813.33
-98.7952 78.3133 1802.41
-99.3939 78.7879 1813.33
-99.8788 78.7879 1813.33
-100.364 78.7879 1813.33
-100.848 78.7879 1813.33
-101.205 78.3133 1802.41
-101.752 78.5498 1807.85
-102.236 78.5498 1807.85
-102.719 78.5498 1807.85
-103.202 78.5498 1807.85
-103.686 78.5498 1807.85
-104.169 78.5498 1807.85
-104.653 78.5498 1807.85
-105.136 78.5498 1807.85
-105.619 78.5498 1807.85
-106.103 78.5498 1807.85
-106.586 78.5498 1807.85
-107.069 78.5498 1807.85
-107.553 78.5498 1807.85
-107.868 78.0781 1797
-108.693 79.0274 1818.84
-108.829 78.0781 1797
-109.309 78.0781 1797
-110.152 79.0274 1818.84
-110.638 79.0274 1818.84
-110.843 78.3133 1802.41
-111.611 79.0274 1818.84
-111.903 78.5498 1807.85
-112.584 79.0274 1818.84
-113.07 79.0274 1818.84
-113.865 79.7546 1835.58
-114.251 79.5107 1829.97
-114.529 79.0274 1818.84
-115.015 79.0274 1818.84
-115.502 79.0274 1818.84
-116.319 79.7546 1835.58
-116.145 78.3133 1802.41
-117.301 79.7546 1835.58
-117.108 78.3133 1802.41
-117.704 78.5498 1807.85
-118.537 79.2683 1824.39
-118.788 78.7879 1813.33
-118.919 78.0781 1797
-119.281 77.8443 1791.62
-119.174 76.6962 1765.19
-119.184 75.8017 1744.61
-119.535 75.5814 1739.53
-120.117 75.8017 1744.61
-120.702 76.0234 1749.71
-121.412 76.4706 1760
-122.255 77.1513 1775.67
-123.114 77.8443 1791.62
-123.855 78.3133 1802.41
-124.878 79.2683 1824.39
-125.644 79.7546 1835.58
-126.708 80.7453 1858.39
-126.626 79.7546 1835.58
-126.829 79.2683 1824.39
-127.317 79.2683 1824.39
-129.62 82.2785 1893.67
-128.44 79.5107 1829.97
-131.282 83.3333 1917.95
-129.268 79.2683 1824.39
-130.37 80.2469 1846.91
-131.18 80.7453 1858.39
-131.677 80.7453 1858.39
-132.665 81.5047 1875.86
-133.841 82.5397 1899.68
-135.948 84.9673 1955.56
-148.845 103.586 2384.06
-159.273 118.182 2720
-161.481 120.37 2770.37
-162.991 121.495 2796.26
-163.349 120.93 2783.26
-163.704 120.37 2770.37
-163.67 119.266 2744.95
-161.416 115.044 2647.79
-164.364 118.182 2720
-161.391 113.043 2601.74
-162.807 114.035 2624.56
-165.766 117.117 2695.5
-166.099 116.592 2683.41
-166.816 116.592 2683.41
-167.928 117.117 2695.5
-169.05 117.647 2707.69
-168.571 116.071 2671.43
-166.957 113.043 2601.74
-163.651 107.884 2482.99
-158.76 100.775 2319.38
-148.267 86.6667 1994.67
-149.495 87.5421 2014.81
-146.454 83.0671 1911.82
-144.892 80.4954 1852.63
-147.048 82.5397 1899.68
-145.276 79.7546 1835.58
-145.969 80 1841.23
-146.873 80.4954 1852.63
-146.341 79.2683 1824.39
-148.931 81.761 1881.76
-147.938 80 1841.23
-148.012 79.5107 1829.97
-148.085 79.0274 1818.84
-148.157 78.5498 1807.85
-148.024 77.8443 1791.62
-148.095 77.381 1780.95
-148.368 77.1513 1775.67
-148.437 76.6962 1765.19
-148.706 76.4706 1760
-148.974 76.2463 1754.84
-149.443 76.2463 1754.84
-149.708 76.0234 1749.71
-150.175 76.0234 1749.71
-150.643 76.0234 1749.71
-150.904 75.8017 1744.61
-151.37 75.8017 1744.61
-151.837 75.8017 1744.61
-152.303 75.8017 1744.61
-152.558 75.5814 1739.53
-153.023 75.5814 1739.53
-153.488 75.5814 1739.53
-153.953 75.5814 1739.53
-154.203 75.3623 1734.49
-154.667 75.3623 1734.49
-155.13 75.3623 1734.49
-155.594 75.3623 1734.49
-156.058 75.3623 1734.49
-156.522 75.3623 1734.49
-156.986 75.3623 1734.49
-157.449 75.3623 1734.49
-157.688 75.1445 1729.48
-158.15 75.1445 1729.48
-158.613 75.1445 1729.48
-159.075 75.1445 1729.48
-159.538 75.1445 1729.48
-160 75.1445 1729.48
-160.462 75.1445 1729.48
-160.692 74.928 1724.5
-161.153 74.928 1724.5
-161.614 74.928 1724.5
-162.075 74.928 1724.5
-162.536 74.928 1724.5
-162.997 74.928 1724.5
-163.458 74.928 1724.5
-163.919 74.928 1724.5
-164.38 74.928 1724.5
-164.841 74.928 1724.5
-165.303 74.928 1724.5
-165.764 74.928 1724.5
-165.977 74.7126 1719.54
-166.686 74.928 1724.5
-166.897 74.7126 1719.54
-167.608 74.928 1724.5
-168.069 74.928 1724.5
-168.276 74.7126 1719.54
-168.991 74.928 1724.5
-169.195 74.7126 1719.54
-169.655 74.7126 1719.54
-170.115 74.7126 1719.54
-170.575 74.7126 1719.54
-171.034 74.7126 1719.54
-171.494 74.7126 1719.54
-171.954 74.7126 1719.54
-172.149 74.4986 1714.61
-172.874 74.7126 1719.54
-173.333 74.7126 1719.54
-173.793 74.7126 1719.54
-174.253 74.7126 1719.54
-174.713 74.7126 1719.54
-175.172 74.7126 1719.54
-175.908 74.928 1724.5
-176.369 74.928 1724.5
-176.552 74.7126 1719.54
-177.011 74.7126 1719.54
-177.471 74.7126 1719.54
-178.213 74.928 1724.5
-178.674 74.928 1724.5
-179.135 74.928 1724.5
17.1429 71.8681 1643.96
16.7033 71.8681 1643.96
16.2637 71.8681 1643.96
15.8242 71.8681 1643.96
15.3846 71.8681 1643.96
14.9451 71.8681 1643.96
14.7658 72.0661 1648.48
14.5856 72.2652 1653.04
14.1436 72.2652 1653.04
13.9612 72.4654 1657.62
13.518 72.4654 1657.62
13.3333 72.6667 1662.22
12.8889 72.6667 1662.22
12.4444 72.6667 1662.22
11.2397 72.0661 1648.48
11.0497 72.2652 1653.04
10.6077 72.2652 1653.04
10.4155 72.4654 1657.62
9.9723 72.4654 1657.62
9.77778 72.6667 1662.22
9.8324 73.0726 1671.51
9.13649 72.8691 1666.85
8.93855 73.0726 1671.51
8.7395 73.2773 1676.19
8.53933 73.4831 1680.9
8.08989 73.4831 1680.9
7.88732 73.6901 1685.63
7.68362 73.8983 1690.4
7.23164 73.8983 1690.4
7.0255 74.1076 1695.18
6.81818 74.3182 1700
6.36364 74.3182 1700
5.90909 74.3182 1700
5.69801 74.5299 1704.84
5.48571 74.7429 1709.71
5.02857 74.7429 1709.71
4.57143 74.7429 1709.71
4.3553 74.957 1714.61
3.89685 74.957 1714.61
3.4384 74.957 1714.61
2.97994 74.957 1714.61
2.52149 74.957 1714.61
2.06304 74.957 1714.61
1.83908 75.1724 1719.54
1.37931 75.1724 1719.54
0.91954 75.1724 1719.54
0.691643 75.389 1724.5
0.230548 75.389 1724.5
-0.230548 75.389 1724.5
-0.691643 75.389 1724.5
-1.15274 75.389 1724.5
-1.38728 75.6069 1729.48
-1.84971 75.6069 1729.48
-2.31214 75.6069 1729.48
-2.77457 75.6069 1729.48
-3.23699 75.6069 1729.48
-3.47826 75.8261 1734.49
-3.94203 75.8261 1734.49
-4.4058 75.8261 1734.49
-4.86957 75.8261 1734.49
-5.33333 75.8261 1734.49
-5.7971 75.8261 1734.49
-6.04651 76.0465 1739.53
-6.51163 76.0465 1739.53
-6.76385 76.2682 1744.61
-7.01754 76.4912 1749.71
-7.48538 76.4912 1749.71
-7.95322 76.4912 1749.71
-8.21114 76.7155 1754.84
-8.68035 76.7155 1754.84
-9.14956 76.7155 1754.84
-9.61877 76.7155 1754.84
-10.088 76.7155 1754.84
-10.3529 76.9412 1760
-10.8235 76.9412 1760
-11.2941 76.9412 1760
-11.5634 77.1681 1765.19
-12.2353 76.9412 1760
-12.5074 77.1681 1765.19
-12.7811 77.3964 1770.41
-13.2544 77.3964 1770.41
-13.5312 77.6261 1775.67
-14.0059 77.6261 1775.67
-14.4807 77.6261 1775.67
-14.9555 77.6261 1775.67
-15.4303 77.6261 1775.67
-15.7143 77.8571 1780.95
-16.1905 77.8571 1780.95
-16.4776 78.0896 1786.27
-17.5148 77.3964 1770.41
-17.2455 78.3234 1791.62
-17.7246 78.3234 1791.62
-18.018 78.5586 1797
-18.4985 78.5586 1797
-18.7952 78.7952 1802.41
-19.2771 78.7952 1802.41
-19.759 78.7952 1802.41
-20.0604 79.0332 1807.85
-21.0778 78.3234 1791.62
-21.0272 79.0332 1807.85
-21.5106 79.0332 1807.85
-21.8182 79.2727 1813.33
-22.303 79.2727 1813.33
-22.614 79.5137 1818.84
-23.4441 79.0332 1807.85
-24.2643 78.5586 1797
-24.2424 79.2727 1813.33
-24.8943 79.0332 1807.85
-25.3776 79.0332 1807.85
-26.0241 78.7952 1802.41
-26.6667 78.5586 1797
-27.4627 78.0896 1786.27
-27.1515 79.2727 1813.33
-28.1081 78.5586 1797
-28.2779 79.0332 1807.85
-28.6061 79.2727 1813.33
-29.3976 78.7952 1802.41
-29.8795 78.7952 1802.41
-30.3614 78.7952 1802.41
-30.8434 78.7952 1802.41
-31.4715 78.5586 1797
-31.8072 78.7952 1802.41
-32.5749 78.3234 1791.62
-32.9129 78.5586 1797
-33.6716 78.0896 1786.27
-33.4545 79.2727 1813.33
-33.6585 79.7561 1824.39
-34.4242 79.2727 1813.33
-34.4954 80 1829.97
-35.2584 79.5137 1818.84
-35.474 80 1829.97
-35.9633 80 1829.97
-36.4526 80 1829.97
-36.9419 80 1829.97
-37.3006 80.2454 1835.58
-37.7914 80.2454 1835.58
-38.6626 79.5137 1818.84
-38.8991 80 1829.97
-39.3884 80 1829.97
-39.7546 80.2454 1835.58
-40.367 80 1829.97
-40.8563 80 1829.97
-41.3456 80 1829.97
-41.8349 80 1829.97
-42.3242 80 1829.97
-42.8135 80 1829.97
-43.4146 79.7561 1824.39
-43.9024 79.7561 1824.39
-44.3902 79.7561 1824.39
-44.878 79.7561 1824.39
-45.3659 79.7561 1824.39
-45.8537 79.7561 1824.39
-46.3415 79.7561 1824.39
-46.8293 79.7561 1824.39
-47.3171 79.7561 1824.39
-47.8049 79.7561 1824.39
-48.2927 79.7561 1824.39
-48.7805 79.7561 1824.39
-49.2683 79.7561 1824.39
-49.7561 79.7561 1824.39
-50.2439 79.7561 1824.39
-50.7317 79.7561 1824.39
-51.1315 80 1829.97
-51.6208 80 1829.97
-52.1101 80 1829.97
-52.5994 80 1829.97
-53.0887 80 1829.97
-53.578 80 1829.97
-53.9877 80.2454 1835.58
-54.4785 80.2454 1835.58
-55.2727 79.2727 1813.33
-55.7576 79.2727 1813.33
-56.3142 79.0332 1807.85
-56.8675 78.7952 1802.41
-57.5522 78.0896 1786.27
-58.0299 78.0896 1786.27
-58.635 77.6261 1775.67
-59.1098 77.6261 1775.67
-59.5238 77.8571 1780.95
