-135 -53.0556 2077.78
-135.363 -52.872 2070.59
-135.724 -52.6897 2063.45
-136.082 -52.5086 2056.36
-136.632 -52.5086 2056.36
-137.182 -52.5086 2056.36
-137.732 -52.5086 2056.36
-138.282 -52.5086 2056.36
-138.832 -52.5086 2056.36
-139.792 -52.872 2070.59
-139.726 -52.3288 2049.32
-140.274 -52.3288 2049.32
-141.453 -52.872 2070.59
-141.793 -52.6897 2063.45
-142.561 -52.872 2070.59
-143.114 -52.872 2070.59
-143.448 -52.6897 2063.45
-144.221 -52.872 2070.59
-145 -53.0556 2077.78
-145.784 -53.2404 2085.02
-146.111 -53.0556 2077.78
-146.899 -53.2404 2085.02
-147.456 -53.2404 2085.02
-148.014 -53.2404 2085.02
-148.571 -53.2404 2085.02
-148.889 -53.0556 2077.78
-149.444 -53.0556 2077.78
-150.244 -53.2404 2085.02
-150.556 -53.0556 2077.78
-151.111 -53.0556 2077.78
-151.667 -53.0556 2077.78
-152.222 -53.0556 2077.78
-152.778 -53.0556 2077.78
-153.333 -53.0556 2077.78
-153.889 -53.0556 2077.78
-154.444 -53.0556 2077.78
-155 -53.0556 2077.78
-155.556 -53.0556 2077.78
-156.111 -53.0556 2077.78
-156.667 -53.0556 2077.78
-157.222 -53.0556 2077.78
-157.778 -53.0556 2077.78
-158.333 -53.0556 2077.78
-158.889 -53.0556 2077.78
-159.444 -53.0556 2077.78
-160 -53.0556 2077.78
-160.556 -53.0556 2077.78
-161.111 -53.0556 2077.78
-161.667 -53.0556 2077.78
-162.222 -53.0556 2077.78
-162.778 -53.0556 2077.78
-163.333 -53.0556 2077.78
-164.181 -53.2404 2085.02
-164.444 -53.0556 2077.78
-165 -53.0556 2077.78
-165.854 -53.2404 2085.02
-166.411 -53.2404 2085.02
-166.969 -53.2404 2085.02
-167.526 -53.2404 2085.02
-168.084 -53.2404 2085.02
-168.641 -53.2404 2085.02
-169.199 -53.2404 2085.02
-169.756 -53.2404 2085.02
-170.629 -53.4266 2092.31
-171.189 -53.4266 2092.31
-171.748 -53.4266 2092.31
-172.308 -53.4266 2092.31
-173.193 -53.614 2099.65
-173.754 -53.614 2099.65
-174.648 -53.8028 2107.04
-175.211 -53.8028 2107.04
-175.775 -53.8028 2107.04
-176.678 -53.9929 2114.49
-177.244 -53.9929 2114.49
-177.809 -53.9929 2114.49
-178.375 -53.9929 2114.49
-178.94 -53.9929 2114.49
-179.155 -53.8028 2107.04
-179.718 -53.8028 2107.04
-180.282 -53.8028 2107.04
-181.56 -54.1844 2121.99
-181.767 -53.9929 2114.49
-182.695 -54.1844 2121.99
-183.63 -54.3772 2129.54
-184.946 -54.767 2144.8
-186.667 -55.3623 2168.12
-188.029 -55.7664 2183.94
-189.815 -56.3838 2208.12
-191.642 -57.0149 2232.84
-192.659 -57.2285 2241.2
-194.113 -57.6604 2258.11
-195.152 -57.8788 2266.67
-196.198 -58.0989 2275.29
-196.806 -58.0989 2275.29
-197.863 -58.3206 2283.97
-198.473 -58.3206 2283.97
-199.084 -58.3206 2283.97
-199.695 -58.3206 2283.97
-200.305 -58.3206 2283.97
-200.916 -58.3206 2283.97
-201.527 -58.3206 2283.97
-202.137 -58.3206 2283.97
-202.748 -58.3206 2283.97
-203.359 -58.3206 2283.97
-203.969 -58.3206 2283.97
-204.58 -58.3206 2283.97
-205.191 -58.3206 2283.97
-205.802 -58.3206 2283.97
-206.412 -58.3206 2283.97
-207.51 -58.5441 2292.72
-208.123 -58.5441 2292.72
-208.736 -58.5441 2292.72
-209.349 -58.5441 2292.72
-209.962 -58.5441 2292.72
-210.575 -58.5441 2292.72
-210.687 -58.3206 2283.97
-211.298 -58.3206 2283.97
23.3918 -44.2105 1749.71
23.2258 -44.3402 1754.84
22.7566 -44.3402 1754.84
22.2874 -44.3402 1754.84
21.8182 -44.3402 1754.84
21.349 -44.3402 1754.84
20.8798 -44.3402 1754.84
20.4106 -44.3402 1754.84
20.2353 -44.4706 1760
19.7647 -44.4706 1760
19.2941 -44.4706 1760
18.8235 -44.4706 1760
18.3529 -44.4706 1760
17.8824 -44.4706 1760
17.6991 -44.6018 1765.19
17.2271 -44.6018 1765.19
16.7552 -44.6018 1765.19
16.2832 -44.6018 1765.19
15.8112 -44.6018 1765.19
15.3392 -44.6018 1765.19
14.8673 -44.6018 1765.19
14.3953 -44.6018 1765.19
13.9233 -44.6018 1765.19
13.4513 -44.6018 1765.19
12.9794 -44.6018 1765.19
12.5074 -44.6018 1765.19
12.0354 -44.6018 1765.19
11.8343 -44.7337 1770.41
11.3609 -44.7337 1770.41
10.8876 -44.7337 1770.41
10.6825 -44.8665 1775.67
10.2077 -44.8665 1775.67
9.73294 -44.8665 1775.67
10.6024 -45.5422 1802.41
14.9841 -48 1899.68
15.3846 -48.4615 1917.95
18.0132 -50.0662 1981.46
17.4834 -50.0662 1981.46
20.6186 -51.9588 2056.36
21.1111 -52.5 2077.78
21.2587 -52.8671 2092.31
20.6993 -52.8671 2092.31
20.4912 -53.0526 2099.65
19.9298 -53.0526 2099.65
19.3684 -53.0526 2099.65
18.807 -53.0526 2099.65
18.2456 -53.0526 2099.65
17.6842 -53.0526 2099.65
17.4648 -53.2394 2107.04
16.9014 -53.2394 2107.04
16.338 -53.2394 2107.04
15.7746 -53.2394 2107.04
15.2113 -53.2394 2107.04
14.6479 -53.2394 2107.04
14.0845 -53.2394 2107.04
13.8516 -53.4276 2114.49
13.2862 -53.4276 2114.49
12.7208 -53.4276 2114.49
12.1555 -53.4276 2114.49
11.5901 -53.4276 2114.49
11.0247 -53.4276 2114.49
10.4594 -53.4276 2114.49
9.89399 -53.4276 2114.49
9.32862 -53.4276 2114.49
9.07801 -53.617 2121.99
8.51064 -53.617 2121.99
7.94326 -53.617 2121.99
7.37589 -53.617 2121.99
6.80851 -53.617 2121.99
6.24113 -53.617 2121.99
5.67376 -53.617 2121.99
5.10638 -53.617 2121.99
4.83986 -53.8078 2129.54
4.27046 -53.8078 2129.54
3.70107 -53.8078 2129.54
3.13167 -53.8078 2129.54
2.56228 -53.8078 2129.54
1.99288 -53.8078 2129.54
1.42349 -53.8078 2129.54
0.854093 -53.8078 2129.54
0.571429 -54 2137.14
-0 -54 2137.14
-0.571429 -54 2137.14
-1.14286 -54 2137.14
-1.71429 -54 2137.14
-2.28571 -54 2137.14
-2.85714 -54 2137.14
-3.42857 -54 2137.14
-4 -54 2137.14
-4.30108 -54.1935 2144.8
-4.87455 -54.1935 2144.8
-5.44803 -54.1935 2144.8
-6.02151 -54.1935 2144.8
-6.59498 -54.1935 2144.8
-7.16846 -54.1935 2144.8
-7.74194 -54.1935 2144.8
-8.31541 -54.1935 2144.8
-8.88889 -54.1935 2144.8
-9.46237 -54.1935 2144.8
-9.78417 -54.3885 2152.52
-10.3597 -54.3885 2152.52
-10.9353 -54.3885 2152.52
-11.5108 -54.3885 2152.52
-12.0863 -54.3885 2152.52
-12.6619 -54.3885 2152.52
-13.2374 -54.3885 2152.52
-13.8129 -54.3885 2152.52
-14.1516 -54.5848 2160.29
-14.7292 -54.5848 2160.29
-15.3069 -54.5848 2160.29
-15.8845 -54.5848 2160.29
-16.4621 -54.5848 2160.29
-17.0397 -54.5848 2160.29
-17.6173 -54.5848 2160.29
-18.1949 -54.5848 2160.29
-18.5507 -54.7826 2168.12
-19.1304 -54.7826 2168.12
-19.7101 -54.7826 2168.12
-20.2899 -54.7826 2168.12
-20.8696 -54.7826 2168.12
-21.4493 -54.7826 2168.12
-22.029 -54.7826 2168.12
-22.6087 -54.7826 2168.12
-23.1884 -54.7826 2168.12
-23.7681 -54.7826 2168.12
-24.1455 -54.9818 2176
-24.7273 -54.9818 2176
-25.3091 -54.9818 2176
-25.8909 -54.9818 2176
-26.4727 -54.9818 2176
-27.0545 -54.9818 2176
-27.6364 -54.9818 2176
-28.2182 -54.9818 2176
-28.6131 -55.1825 2183.94
-29.1971 -55.1825 2183.94
-29.781 -55.1825 2183.94
-30.365 -55.1825 2183.94
-30.9489 -55.1825 2183.94
-31.5328 -55.1825 2183.94
-31.9414 -55.3846 2191.94
-32.5275 -55.3846 2191.94
-33.1136 -55.3846 2191.94
-33.6996 -55.3846 2191.94
-34.2857 -55.3846 2191.94
-34.7059 -55.5882 2200
-35.4579 -55.3846 2191.94
-36.044 -55.3846 2191.94
-36.4706 -55.5882 2200
-37.0588 -55.5882 2200
-37.6471 -55.5882 2200
-38.2353 -55.5882 2200
-38.8235 -55.5882 2200
-39.4118 -55.5882 2200
-40 -55.5882 2200
-40.5882 -55.5882 2200
-41.1765 -55.5882 2200
-41.7647 -55.5882 2200
-42.214 -55.7934 2208.12
-42.8044 -55.7934 2208.12
-43.3948 -55.7934 2208.12
-43.9852 -55.7934 2208.12
-44.5756 -55.7934 2208.12
-45.1661 -55.7934 2208.12
-45.7565 -55.7934 2208.12
-46.3469 -55.7934 2208.12
-46.8148 -56 2216.3
-47.4074 -56 2216.3
-48 -56 2216.3
-48.5926 -56 2216.3
-49.1852 -56 2216.3
-49.7778 -56 2216.3
-50.3704 -56 2216.3
-50.963 -56 2216.3
-51.5556 -56 2216.3
-52.0446 -56.2082 2224.54
-52.6394 -56.2082 2224.54
-53.2342 -56.2082 2224.54
-53.829 -56.2082 2224.54
-54.4238 -56.2082 2224.54
-55.0186 -56.2082 2224.54
-55.6134 -56.2082 2224.54
-56.2082 -56.2082 2224.54
-56.803 -56.2082 2224.54
-57.3134 -56.4179 2232.84
-57.9104 -56.4179 2232.84
-58.5075 -56.4179 2232.84
-59.1045 -56.4179 2232.84
-59.7015 -56.4179 2232.84
-60.2985 -56.4179 2232.84
-60.824 -56.6292 2241.2
-61.4232 -56.6292 2241.2
-62.0225 -56.6292 2241.2
-62.6217 -56.6292 2241.2
-63.221 -56.6292 2241.2
-63.8202 -56.6292 2241.2
-64.4195 -56.6292 2241.2
-65.0187 -56.6292 2241.2
-65.618 -56.6292 2241.2
-66.2172 -56.6292 2241.2
-66.7669 -56.8421 2249.62
-67.3684 -56.8421 2249.62
-67.9699 -56.8421 2249.62
-68.5714 -56.8421 2249.62
-69.1729 -56.8421 2249.62
-69.7744 -56.8421 2249.62
-70.3759 -56.8421 2249.62
-70.9774 -56.8421 2249.62
-71.5472 -57.0566 2258.11
-72.1509 -57.0566 2258.11
-72.7273 -57.2727 2266.67
-73.3333 -57.2727 2266.67
-73.9163 -57.4905 2275.29
-74.5247 -57.4905 2275.29
-75.1145 -57.7099 2283.97
-75.7252 -57.7099 2283.97
-76.3359 -57.7099 2283.97
-76.9466 -57.7099 2283.97
-77.5573 -57.7099 2283.97
-78.1679 -57.7099 2283.97
-78.7786 -57.7099 2283.97
-79.3893 -57.7099 2283.97
-80 -57.7099 2283.97
-80.6107 -57.7099 2283.97
-81.2214 -57.7099 2283.97
-81.8321 -57.7099 2283.97
-82.4427 -57.7099 2283.97
-83.0534 -57.7099 2283.97
-83.6641 -57.7099 2283.97
-84.2748 -57.7099 2283.97
-84.8855 -57.7099 2283.97
-85.4962 -57.7099 2283.97
-86.1069 -57.7099 2283.97
-86.7176 -57.7099 2283.97
-87.3282 -57.7099 2283.97
-87.9389 -57.7099 2283.97
-88.5496 -57.7099 2283.97
-89.1954 -57.931 2292.72
-89.771 -57.7099 2283.97
-90.4215 -57.931 2292.72
-90.9924 -57.7099 2283.97
-91.6031 -57.7099 2283.97
-92.2137 -57.7099 2283.97
-92.8244 -57.7099 2283.97
-93.4351 -57.7099 2283.97
-94.0458 -57.7099 2283.97
-94.6565 -57.7099 2283.97
-95.2672 -57.7099 2283.97
-95.8779 -57.7099 2283.97
-96.5517 -57.931 2292.72
-97.1648 -57.931 2292.72
-97.7778 -57.931 2292.72
-98.3908 -57.931 2292.72
-99.0038 -57.931 2292.72
-99.6169 -57.931 2292.72
-100.23 -57.931 2292.72
-100.843 -57.931 2292.72
-101.456 -57.931 2292.72
-102.069 -57.931 2292.72
-102.682 -57.931 2292.72
-103.295 -57.931 2292.72
-103.908 -57.931 2292.72
-104.521 -57.931 2292.72
-105.134 -57.931 2292.72
-105.747 -57.931 2292.72
-106.36 -57.931 2292.72
-106.973 -57.931 2292.72
-107.586 -57.931 2292.72
-108.199 -57.931 2292.72
-108.812 -57.931 2292.72
-109.425 -57.931 2292.72
-110.038 -57.931 2292.72
-110.651 -57.931 2292.72
-111.264 -57.931 2292.72
-111.877 -57.931 2292.72
-112.49 -57.931 2292.72
-113.103 -57.931 2292.72
-113.716 -57.931 2292.72
-114.33 -57.931 2292.72
-114.943 -57.931 2292.72
-115.556 -57.931 2292.72
-116.169 -57.931 2292.72
-116.782 -57.931 2292.72
-117.395 -57.931 2292.72
-118.008 -57.931 2292.72
-118.621 -57.931 2292.72
-119.234 -57.931 2292.72
-119.847 -57.931 2292.72
-120.46 -57.931 2292.72
-121.073 -57.931 2292.72
-121.527 -57.7099 2283.97
-122.137 -57.7099 2283.97
-122.748 -57.7099 2283.97
-123.359 -57.7099 2283.97
-124.138 -57.931 2292.72
-124.751 -57.931 2292.72
-125.191 -57.7099 2283.97
-125.802 -57.7099 2283.97
-126.412 -57.7099 2283.97
-127.023 -57.7099 2283.97
-127.634 -57.7099 2283.97
-128.244 -57.7099 2283.97
-128.855 -57.7099 2283.97
-129.091 -57.2727 2266.67
-130.076 -57.7099 2283.97
-130.494 -57.4905 2275.29
-130.909 -57.2727 2266.67
-131.515 -57.2727 2266.67
-132.319 -57.4905 2275.29
-132.727 -57.2727 2266.67
-132.342 -56.2082 2224.54
-132.937 -56.2082 2224.54
-131.986 -54.5848 2160.29
-132.754 -54.7826 2168.12
-133.527 -54.9818 2176
-133.333 -54.1935 2144.8
-133.333 -53.617 2121.99
-133.901 -53.617 2121.99
-134.276 -53.4276 2114.49
-135.035 -53.617 2121.99
-135.018 -53.0526 2099.65
-135.579 -53.0526 2099.65
-135.749 -52.6829 2085.02
-135.533 -51.9588 2056.36
-135.7 -51.6041 2042.32
-136.054 -51.4286 2035.37
-136.407 -51.2542 2028.47
-137.143 -51.4286 2035.37
-137.492 -51.2542 2028.47
-138.034 -51.2542 2028.47
-138.776 -51.4286 2035.37
-139.119 -51.2542 2028.47
-139.864 -51.4286 2035.37
-140.614 -51.6041 2042.32
-141.37 -51.7808 2049.32
-142.131 -51.9588 2056.36
-142.897 -52.1379 2063.45
-143.23 -51.9588 2056.36
-144.221 -52.3183 2070.59
-145 -52.5 2077.78
-145.556 -52.5 2077.78
-146.111 -52.5 2077.78
-146.667 -52.5 2077.78
-147.456 -52.6829 2085.02
-148.014 -52.6829 2085.02
-148.571 -52.6829 2085.02
-149.129 -52.6829 2085.02
-149.444 -52.5 2077.78
-150 -52.5 2077.78
-150.556 -52.5 2077.78
-151.111 -52.5 2077.78
-151.667 -52.5 2077.78
-152.222 -52.5 2077.78
-152.778 -52.5 2077.78
-153.333 -52.5 2077.78
-153.889 -52.5 2077.78
-154.444 -52.5 2077.78
-155 -52.5 2077.78
-155.556 -52.5 2077.78
-156.111 -52.5 2077.78
-156.667 -52.5 2077.78
-157.222 -52.5 2077.78
-157.778 -52.5 2077.78
-158.333 -52.5 2077.78
-158.889 -52.5 2077.78
-159.444 -52.5 2077.78
-160 -52.5 2077.78
-160.556 -52.5 2077.78
-161.111 -52.5 2077.78
-161.667 -52.5 2077.78
-162.222 -52.5 2077.78
-162.778 -52.5 2077.78
-163.333 -52.5 2077.78
-163.889 -52.5 2077.78
-164.739 -52.6829 2085.02
-165 -52.5 2077.78
-165.556 -52.5 2077.78
-166.411 -52.6829 2085.02
-166.969 -52.6829 2085.02
-167.526 -52.6829 2085.02
-168.084 -52.6829 2085.02
-168.641 -52.6829 2085.02
-169.199 -52.6829 2085.02
-169.756 -52.6829 2085.02
-170.629 -52.8671 2092.31
-171.189 -52.8671 2092.31
-171.748 -52.8671 2092.31
-172.632 -53.0526 2099.65
-173.193 -53.0526 2099.65
-174.085 -53.2394 2107.04
-174.648 -53.2394 2107.04
-175.211 -53.2394 2107.04
-176.454 -53.617 2121.99
-177.021 -53.617 2121.99
-178.286 -54 2137.14
-178.505 -53.8078 2129.54
-179.429 -54 2137.14
-180 -54 2137.14
-180.214 -53.8078 2129.54
-180.783 -53.8078 2129.54
-181.352 -53.8078 2129.54
-181.922 -53.8078 2129.54
-182.857 -54 2137.14
-183.799 -54.1935 2144.8
-184.748 -54.3885 2152.52
-186.087 -54.7826 2168.12
-187.445 -55.1825 2183.94
-189.225 -55.7934 2208.12
-191.461 -56.6292 2241.2
-193.333 -57.2727 2266.67
-193.509 -57.0566 2258.11
-195.42 -57.7099 2283.97
-195.589 -57.4905 2275.29
-196.641 -57.7099 2283.97
-197.252 -57.7099 2283.97
-197.863 -57.7099 2283.97
-198.473 -57.7099 2283.97
-199.084 -57.7099 2283.97
-199.695 -57.7099 2283.97
-200.766 -57.931 2292.72
-200.916 -57.7099 2283.97
-201.527 -57.7099 2283.97
-202.137 -57.7099 2283.97
-202.748 -57.7099 2283.97
-203.359 -57.7099 2283.97
-203.969 -57.7099 2283.97
-204.58 -57.7099 2283.97
-205.191 -57.7099 2283.97
-205.802 -57.7099 2283.97
-206.412 -57.7099 2283.97
-207.023 -57.7099 2283.97
-208.123 -57.931 2292.72
-208.736 -57.931 2292.72
-209.349 -57.931 2292.72
-209.962 -57.931 2292.72
-210.076 -57.7099 2283.97
-210.687 -57.7099 2283.97
-211.298 -57.7099 2283.97
23.3918 -43.7427 1749.71
22.924 -43.7427 1749.71
22.7566 -43.871 1754.84
22.2874 -43.871 1754.84
21.8182 -43.871 1754.84
21.349 -43.871 1754.84
20.8798 -43.871 1754.84
20.4106 -43.871 1754.84
20.2353 -44 1760
19.7647 -44 1760
19.2941 -44 1760
18.8235 -44 1760
18.3529 -44 1760
17.8824 -44 1760
17.6991 -44.1298 1765.19
17.2271 -44.1298 1765.19
16.7552 -44.1298 1765.19
16.2832 -44.1298 1765.19
15.8112 -44.1298 1765.19
15.3392 -44.1298 1765.19
14.8673 -44.1298 1765.19
14.3953 -44.1298 1765.19
13.9233 -44.1298 1765.19
13.4513 -44.1298 1765.19
12.9794 -44.1298 1765.19
12.5074 -44.1298 1765.19
12.3077 -44.2604 1770.41
11.8343 -44.2604 1770.41
11.3609 -44.2604 1770.41
10.8876 -44.2604 1770.41
10.4142 -44.2604 1770.41
10.2077 -44.3917 1775.67
9.73294 -44.3917 1775.67
13.1269 -46.3158 1852.63
13.7931 -46.8966 1875.86
15.3846 -47.9487 1917.95
15.4839 -48.2581 1930.32
19.1246 -50.3704 2014.81
20.274 -51.2329 2049.32
21.1111 -51.9444 2077.78
21.2587 -52.3077 2092.31
21.0526 -52.4912 2099.65
20.4912 -52.4912 2099.65
19.9298 -52.4912 2099.65
19.3684 -52.4912 2099.65
18.807 -52.4912 2099.65
18.2456 -52.4912 2099.65
17.6842 -52.4912 2099.65
17.4648 -52.6761 2107.04
16.9014 -52.6761 2107.04
16.338 -52.6761 2107.04
15.7746 -52.6761 2107.04
15.2113 -52.6761 2107.04
14.6479 -52.6761 2107.04
14.0845 -52.6761 2107.04
13.8516 -52.8622 2114.49
13.2862 -52.8622 2114.49
12.7208 -52.8622 2114.49
12.1555 -52.8622 2114.49
11.5901 -52.8622 2114.49
11.0247 -52.8622 2114.49
10.4594 -52.8622 2114.49
9.89399 -52.8622 2114.49
9.32862 -52.8622 2114.49
8.76325 -52.8622 2114.49
8.51064 -53.0496 2121.99
7.94326 -53.0496 2121.99
7.37589 -53.0496 2121.99
6.80851 -53.0496 2121.99
6.24113 -53.0496 2121.99
5.67376 -53.0496 2121.99
5.10638 -53.0496 2121.99
4.83986 -53.2384 2129.54
4.27046 -53.2384 2129.54
3.70107 -53.2384 2129.54
3.13167 -53.2384 2129.54
2.56228 -53.2384 2129.54
1.99288 -53.2384 2129.54
1.42349 -53.2384 2129.54
0.854093 -53.2384 2129.54
0.571429 -53.4286 2137.14
-0 -53.4286 2137.14
-0.571429 -53.4286 2137.14
-1.14286 -53.4286 2137.14
-1.71429 -53.4286 2137.14
-2.28571 -53.4286 2137.14
-2.85714 -53.4286 2137.14
-3.42857 -53.4286 2137.14
-4 -53.4286 2137.14
-4.30108 -53.6201 2144.8
-4.87455 -53.6201 2144.8
-5.44803 -53.6201 2144.8
-6.02151 -53.6201 2144.8
-6.59498 -53.6201 2144.8
-7.16846 -53.6201 2144.8
-7.74194 -53.6201 2144.8
-8.31541 -53.6201 2144.8
-8.88889 -53.6201 2144.8
-9.20863 -53.8129 2152.52
-9.78417 -53.8129 2152.52
-10.3597 -53.8129 2152.52
-10.9353 -53.8129 2152.52
-11.5108 -53.8129 2152.52
-12.0863 -53.8129 2152.52
-12.6619 -53.8129 2152.52
-13.2374 -53.8129 2152.52
-13.8129 -53.8129 2152.52
-14.1516 -54.0072 2160.29
-14.7292 -54.0072 2160.29
-15.3069 -54.0072 2160.29
-15.8845 -54.0072 2160.29
-16.4621 -54.0072 2160.29
-17.0397 -54.0072 2160.29
-17.6173 -54.0072 2160.29
-18.1949 -54.0072 2160.29
-18.5507 -54.2029 2168.12
-19.1304 -54.2029 2168.12
-19.7101 -54.2029 2168.12
-20.2899 -54.2029 2168.12
-20.8696 -54.2029 2168.12
-21.4493 -54.2029 2168.12
-22.029 -54.2029 2168.12
-22.6087 -54.2029 2168.12
-23.1884 -54.2029 2168.12
-23.5636 -54.4 2176
-24.1455 -54.4 2176
-24.7273 -54.4 2176
-25.3091 -54.4 2176
-25.8909 -54.4 2176
-26.4727 -54.4 2176
-27.0545 -54.4 2176
-27.6364 -54.4 2176
-28.2182 -54.4 2176
-28.6131 -54.5985 2183.94
-29.1971 -54.5985 2183.94
-29.781 -54.5985 2183.94
-30.365 -54.5985 2183.94
-30.9489 -54.5985 2183.94
-31.5328 -54.5985 2183.94
-31.9414 -54.7985 2191.94
-32.5275 -54.7985 2191.94
-33.1136 -54.7985 2191.94
-33.6996 -54.7985 2191.94
-34.2857 -54.7985 2191.94
-34.8718 -54.7985 2191.94
-35.4579 -54.7985 2191.94
-36.044 -54.7985 2191.94
-36.63 -54.7985 2191.94
-37.0588 -55 2200
-37.6471 -55 2200
-38.2353 -55 2200
-38.8235 -55 2200
-39.4118 -55 2200
-40 -55 2200
-40.5882 -55 2200
-41.1765 -55 2200
-41.7647 -55 2200
-42.214 -55.203 2208.12
-42.8044 -55.203 2208.12
-43.3948 -55.203 2208.12
-43.9852 -55.203 2208.12
-44.5756 -55.203 2208.12
-45.1661 -55.203 2208.12
-45.7565 -55.203 2208.12
-46.3469 -55.203 2208.12
-46.8148 -55.4074 2216.3
-47.4074 -55.4074 2216.3
-48 -55.4074 2216.3
-48.5926 -55.4074 2216.3
-49.1852 -55.4074 2216.3
-49.7778 -55.4074 2216.3
-50.3704 -55.4074 2216.3
-50.963 -55.4074 2216.3
-51.5556 -55.4074 2216.3
-52.1481 -55.4074 2216.3
-52.6394 -55.6134 2224.54
-53.2342 -55.6134 2224.54
-53.829 -55.6134 2224.54
-54.4238 -55.6134 2224.54
-55.0186 -55.6134 2224.54
-55.6134 -55.6134 2224.54
-56.2082 -55.6134 2224.54
-56.803 -55.6134 2224.54
-57.3134 -55.8209 2232.84
-57.9104 -55.8209 2232.84
-58.5075 -55.8209 2232.84
-59.1045 -55.8209 2232.84
-59.7015 -55.8209 2232.84
-60.2985 -55.8209 2232.84
-60.8955 -55.8209 2232.84
-61.4232 -56.03 2241.2
-62.0225 -56.03 2241.2
-62.6217 -56.03 2241.2
-63.221 -56.03 2241.2
-63.8202 -56.03 2241.2
-64.4195 -56.03 2241.2
-65.0187 -56.03 2241.2
-65.618 -56.03 2241.2
-66.1654 -56.2406 2249.62
-66.8165 -56.03 2241.2
-67.3684 -56.2406 2249.62
-67.9699 -56.2406 2249.62
-68.5714 -56.2406 2249.62
-69.1729 -56.2406 2249.62
-69.7744 -56.2406 2249.62
-70.3759 -56.2406 2249.62
-70.9434 -56.4528 2258.11
-71.5472 -56.4528 2258.11
-72.1509 -56.4528 2258.11
-72.7547 -56.4528 2258.11
-73.3333 -56.6667 2266.67
-73.9394 -56.6667 2266.67
-74.5247 -56.8821 2275.29
-75.1145 -57.0992 2283.97
-75.7252 -57.0992 2283.97
-76.3359 -57.0992 2283.97
-76.9466 -57.0992 2283.97
-77.5573 -57.0992 2283.97
-78.1679 -57.0992 2283.97
-78.7786 -57.0992 2283.97
-79.3893 -57.0992 2283.97
-80 -57.0992 2283.97
-80.6107 -57.0992 2283.97
-81.2214 -57.0992 2283.97
-81.8321 -57.0992 2283.97
-82.4427 -57.0992 2283.97
-83.0534 -57.0992 2283.97
-83.6641 -57.0992 2283.97
-84.2748 -57.0992 2283.97
-84.8855 -57.0992 2283.97
-85.4962 -57.0992 2283.97
-86.1069 -57.0992 2283.97
-86.7176 -57.0992 2283.97
-87.3282 -57.0992 2283.97
-87.9389 -57.0992 2283.97
-88.5496 -57.0992 2283.97
-89.1954 -57.318 2292.72
-89.771 -57.0992 2283.97
-90.4215 -57.318 2292.72
-90.9924 -57.0992 2283.97
-91.6031 -57.0992 2283.97
-92.2137 -57.0992 2283.97
-92.8244 -57.0992 2283.97
-93.4351 -57.0992 2283.97
-94.0458 -57.0992 2283.97
-94.6565 -57.0992 2283.97
-95.2672 -57.0992 2283.97
-95.8779 -57.0992 2283.97
-96.5517 -57.318 2292.72
-97.1648 -57.318 2292.72
-97.7778 -57.318 2292.72
-98.3908 -57.318 2292.72
-99.0038 -57.318 2292.72
-99.6169 -57.318 2292.72
-100.23 -57.318 2292.72
-100.843 -57.318 2292.72
-101.456 -57.318 2292.72
-102.069 -57.318 2292.72
-102.682 -57.318 2292.72
-103.295 -57.318 2292.72
-103.908 -57.318 2292.72
-104.521 -57.318 2292.72
-105.134 -57.318 2292.72
-105.747 -57.318 2292.72
-106.36 -57.318 2292.72
-106.973 -57.318 2292.72
-107.586 -57.318 2292.72
-108.199 -57.318 2292.72
-108.812 -57.318 2292.72
-109.425 -57.318 2292.72
-110.038 -57.318 2292.72
-110.651 -57.318 2292.72
-111.264 -57.318 2292.72
-111.877 -57.318 2292.72
-112.49 -57.318 2292.72
-113.103 -57.318 2292.72
-113.716 -57.318 2292.72
-114.33 -57.318 2292.72
-114.943 -57.318 2292.72
-115.556 -57.318 2292.72
-116.169 -57.318 2292.72
-116.782 -57.318 2292.72
-117.395 -57.318 2292.72
-118.008 -57.318 2292.72
-118.621 -57.318 2292.72
-119.234 -57.318 2292.72
-119.847 -57.318 2292.72
-120.46 -57.318 2292.72
-121.073 -57.318 2292.72
-121.527 -57.0992 2283.97
-122.137 -57.0992 2283.97
-122.748 -57.0992 2283.97
-123.359 -57.0992 2283.97
-123.969 -57.0992 2283.97
-124.58 -57.0992 2283.97
-125.191 -57.0992 2283.97
-125.802 -57.0992 2283.97
-126.412 -57.0992 2283.97
-127.023 -57.0992 2283.97
-127.634 -57.0992 2283.97
-128.244 -57.0992 2283.97
-128.855 -57.0992 2283.97
-129.466 -57.0992 2283.97
-130.076 -57.0992 2283.97
-130.494 -56.8821 2275.29
-131.298 -57.0992 2283.97
-131.908 -57.0992 2283.97
-132.121 -56.6667 2266.67
-132.727 -56.6667 2266.67
-132.537 -55.8209 2232.84
-133.333 -56.03 2241.2
-133.333 -55.4074 2216.3
-133.727 -55.203 2208.12
-133.723 -54.5985 2183.94
-133.913 -54.2029 2168.12
-134.493 -54.2029 2168.12
-134.676 -53.8129 2152.52
-135.054 -53.6201 2144.8
-135.429 -53.4286 2137.14
-135.406 -52.8622 2114.49
-135.385 -52.3077 2092.31
-134.983 -51.4089 2056.36
-134.966 -50.8844 2035.37
-135.135 -50.5405 2021.62
-135.302 -50.2013 2008.05
-135.839 -50.2013 2008.05
-136 -49.8667 1994.67
-136.722 -50.0334 2001.34
-137.258 -50.0334 2001.34
-137.793 -50.0334 2001.34
-138.523 -50.2013 2008.05
-138.863 -50.0334 2001.34
-139.597 -50.2013 2008.05
-140.337 -50.3704 2014.81
-141.081 -50.5405 2021.62
-142.253 -51.058 2042.32
-142.585 -50.8844 2035.37
-143.562 -51.2329 2049.32
-144.552 -51.5862 2063.45
-145.329 -51.7647 2070.59
-146.111 -51.9444 2077.78
-146.667 -51.9444 2077.78
-147.222 -51.9444 2077.78
-147.778 -51.9444 2077.78
-148.333 -51.9444 2077.78
-148.889 -51.9444 2077.78
-149.444 -51.9444 2077.78
-150 -51.9444 2077.78
-150.556 -51.9444 2077.78
-151.111 -51.9444 2077.78
-151.667 -51.9444 2077.78
-152.222 -51.9444 2077.78
-152.778 -51.9444 2077.78
-153.333 -51.9444 2077.78
-153.889 -51.9444 2077.78
-154.444 -51.9444 2077.78
-155 -51.9444 2077.78
-155.556 -51.9444 2077.78
-156.111 -51.9444 2077.78
-156.667 -51.9444 2077.78
-157.222 -51.9444 2077.78
-157.778 -51.9444 2077.78
-158.333 -51.9444 2077.78
-158.889 -51.9444 2077.78
-159.444 -51.9444 2077.78
-160 -51.9444 2077.78
-160.556 -51.9444 2077.78
-161.111 -51.9444 2077.78
-161.667 -51.9444 2077.78
-162.222 -51.9444 2077.78
-162.778 -51.9444 2077.78
-163.333 -51.9444 2077.78
-163.889 -51.9444 2077.78
-164.444 -51.9444 2077.78
-165 -51.9444 2077.78
-165.556 -51.9444 2077.78
-166.111 -51.9444 2077.78
-166.969 -52.1254 2085.02
-167.526 -52.1254 2085.02
-168.084 -52.1254 2085.02
-168.641 -52.1254 2085.02
-169.199 -52.1254 2085.02
-169.756 -52.1254 2085.02
-170.629 -52.3077 2092.31
-171.189 -52.3077 2092.31
-171.748 -52.3077 2092.31
-172.632 -52.4912 2099.65
-173.193 -52.4912 2099.65
-174.085 -52.6761 2107.04
-174.982 -52.8622 2114.49
-176.228 -53.2384 2129.54
-177.143 -53.4286 2137.14
-178.065 -53.6201 2144.8
-179.35 -54.0072 2160.29
-179.928 -54.0072 2160.29
-180.505 -54.0072 2160.29
-181.449 -54.2029 2168.12
-181.661 -54.0072 2160.29
-182.238 -54.0072 2160.29
-182.816 -54.0072 2160.29
-183.394 -54.0072 2160.29
-184.348 -54.2029 2168.12
-184.928 -54.2029 2168.12
-185.891 -54.4 2176
-187.253 -54.7985 2191.94
-188.635 -55.203 2208.12
-190.037 -55.6134 2224.54
-191.461 -56.03 2241.2
-193.764 -56.8821 2275.29
-194.373 -56.8821 2275.29
-195.42 -57.0992 2283.97
-196.031 -57.0992 2283.97
-196.641 -57.0992 2283.97
-197.252 -57.0992 2283.97
-197.863 -57.0992 2283.97
-198.473 -57.0992 2283.97
-199.084 -57.0992 2283.97
-199.695 -57.0992 2283.97
-200.766 -57.318 2292.72
-201.379 -57.318 2292.72
-201.527 -57.0992 2283.97
-202.137 -57.0992 2283.97
-202.748 -57.0992 2283.97
-203.359 -57.0992 2283.97
-203.969 -57.0992 2283.97
-204.58 -57.0992 2283.97
-205.191 -57.0992 2283.97
-206.284 -57.318 2292.72
-206.412 -57.0992 2283.97
-207.51 -57.318 2292.72
-208.123 -57.318 2292.72
-208.736 -57.318 2292.72
-209.349 -57.318 2292.72
-209.466 -57.0992 2283.97
-210.076 -57.0992 2283.97
-210.687 -57.0992 2283.97
-211.298 -57.0992 2283.97
23.3918 -43.2749 1749.71
22.924 -43.2749 1749.71
22.4561 -43.2749 1749.71
22.2874 -43.4018 1754.84
21.8182 -43.4018 1754.84
21.349 -43.4018 1754.84
20.8798 -43.4018 1754.84
20.7059 -43.5294 1760
20.2353 -43.5294 1760
19.7647 -43.5294 1760
19.2941 -43.5294 1760
18.8235 -43.5294 1760
18.3529 -43.5294 1760
17.8824 -43.5294 1760
17.6991 -43.6578 1765.19
17.2271 -43.6578 1765.19
16.7552 -43.6578 1765.19
16.2832 -43.6578 1765.19
15.8112 -43.6578 1765.19
15.3392 -43.6578 1765.19
14.8673 -43.6578 1765.19
14.3953 -43.6578 1765.19
13.9233 -43.6578 1765.19
13.4513 -43.6578 1765.19
12.9794 -43.6578 1765.19
12.5074 -43.6578 1765.19
12.0354 -43.6578 1765.19
11.8343 -43.787 1770.41
11.3609 -43.787 1770.41
10.8876 -43.787 1770.41
10.4142 -43.787 1770.41
11.018 -44.3114 1791.62
9.73294 -43.9169 1775.67
10.3303 -44.4444 1797
13.5 -46.25 1870
16 -47.7419 1930.32
14.5687 -47.2843 1911.82
18.7919 -49.6644 2008.05
19.5918 -50.3401 2035.37
21.4634 -51.5679 2085.02
20.2076 -51.2111 2070.59
20.6993 -51.7483 2092.31
20.4912 -51.9298 2099.65
19.9298 -51.9298 2099.65
19.3684 -51.9298 2099.65
18.807 -51.9298 2099.65
18.2456 -51.9298 2099.65
18.0282 -52.1127 2107.04
17.4648 -52.1127 2107.04
16.9014 -52.1127 2107.04
16.338 -52.1127 2107.04
15.7746 -52.1127 2107.04
15.2113 -52.1127 2107.04
14.6479 -52.1127 2107.04
14.0845 -52.1127 2107.04
13.8516 -52.2968 2114.49
13.2862 -52.2968 2114.49
12.7208 -52.2968 2114.49
12.1555 -52.2968 2114.49
11.5901 -52.2968 2114.49
11.0247 -52.2968 2114.49
10.4594 -52.2968 2114.49
9.89399 -52.2968 2114.49
9.32862 -52.2968 2114.49
8.76325 -52.2968 2114.49
8.51064 -52.4823 2121.99
7.94326 -52.4823 2121.99
7.37589 -52.4823 2121.99
6.80851 -52.4823 2121.99
6.24113 -52.4823 2121.99
5.67376 -52.4823 2121.99
5.10638 -52.4823 2121.99
4.53901 -52.4823 2121.99
4.27046 -52.669 2129.54
3.70107 -52.669 2129.54
3.13167 -52.669 2129.54
2.56228 -52.669 2129.54
1.99288 -52.669 2129.54
1.42349 -52.669 2129.54
0.854093 -52.669 2129.54
0.571429 -52.8571 2137.14
-0 -52.8571 2137.14
-0.571429 -52.8571 2137.14
-1.14286 -52.8571 2137.14
-1.71429 -52.8571 2137.14
-2.28571 -52.8571 2137.14
-2.85714 -52.8571 2137.14
-3.42857 -52.8571 2137.14
-4 -52.8571 2137.14
-4.30108 -53.0466 2144.8
-4.87455 -53.0466 2144.8
-5.44803 -53.0466 2144.8
-6.02151 -53.0466 2144.8
-6.59498 -53.0466 2144.8
-7.16846 -53.0466 2144.8
-7.74194 -53.0466 2144.8
-8.31541 -53.0466 2144.8
-8.88889 -53.0466 2144.8
-9.46237 -53.0466 2144.8
-9.78417 -53.2374 2152.52
-10.3597 -53.2374 2152.52
-10.9353 -53.2374 2152.52
-11.5108 -53.2374 2152.52
-12.0863 -53.2374 2152.52
-12.6619 -53.2374 2152.52
-13.2374 -53.2374 2152.52
-13.8129 -53.2374 2152.52
-14.1516 -53.4296 2160.29
-14.7292 -53.4296 2160.29
-15.3069 -53.4296 2160.29
-15.8845 -53.4296 2160.29
-16.4621 -53.4296 2160.29
-17.0397 -53.4296 2160.29
-17.6173 -53.4296 2160.29
-18.1949 -53.4296 2160.29
-18.5507 -53.6232 2168.12
-19.1304 -53.6232 2168.12
-19.7101 -53.6232 2168.12
-20.2899 -53.6232 2168.12
-20.8696 -53.6232 2168.12
-21.4493 -53.6232 2168.12
-22.029 -53.6232 2168.12
-22.6087 -53.6232 2168.12
-23.1884 -53.6232 2168.12
-23.7681 -53.6232 2168.12
-24.1455 -53.8182 2176
-24.7273 -53.8182 2176
-25.3091 -53.8182 2176
-25.8909 -53.8182 2176
-26.4727 -53.8182 2176
-27.0545 -53.8182 2176
-27.6364 -53.8182 2176
-28.2182 -53.8182 2176
-28.6131 -54.0146 2183.94
-29.1971 -54.0146 2183.94
-29.781 -54.0146 2183.94
-30.365 -54.0146 2183.94
-30.9489 -54.0146 2183.94
-31.5328 -54.0146 2183.94
-31.9414 -54.2125 2191.94
-32.5275 -54.2125 2191.94
-33.1136 -54.2125 2191.94
-33.6996 -54.2125 2191.94
-34.2857 -54.2125 2191.94
-34.8718 -54.2125 2191.94
-35.4579 -54.2125 2191.94
-36.044 -54.2125 2191.94
-36.63 -54.2125 2191.94
-37.0588 -54.4118 2200
-37.6471 -54.4118 2200
-38.2353 -54.4118 2200
-38.8235 -54.4118 2200
-39.4118 -54.4118 2200
-40 -54.4118 2200
-40.5882 -54.4118 2200
-41.1765 -54.4118 2200
-41.7647 -54.4118 2200
-42.214 -54.6125 2208.12
-42.8044 -54.6125 2208.12
-43.3948 -54.6125 2208.12
-43.9852 -54.6125 2208.12
-44.5756 -54.6125 2208.12
-45.1661 -54.6125 2208.12
-45.7565 -54.6125 2208.12
-46.2222 -54.8148 2216.3
-46.8148 -54.8148 2216.3
-47.4074 -54.8148 2216.3
-48 -54.8148 2216.3
-48.5926 -54.8148 2216.3
-49.1852 -54.8148 2216.3
-49.6654 -55.0186 2224.54
-50.3704 -54.8148 2216.3
-50.963 -54.8148 2216.3
-51.5556 -54.8148 2216.3
-52.0446 -55.0186 2224.54
-52.6394 -55.0186 2224.54
-53.2342 -55.0186 2224.54
-53.829 -55.0186 2224.54
-54.4238 -55.0186 2224.54
-55.0186 -55.0186 2224.54
-55.6134 -55.0186 2224.54
-56.2082 -55.0186 2224.54
-56.803 -55.0186 2224.54
-57.3134 -55.2239 2232.84
-57.9104 -55.2239 2232.84
-58.5075 -55.2239 2232.84
-59.1045 -55.2239 2232.84
-59.7015 -55.2239 2232.84
-60.2247 -55.4307 2241.2
-60.8955 -55.2239 2232.84
-61.4232 -55.4307 2241.2
-62.0225 -55.4307 2241.2
-62.6217 -55.4307 2241.2
-63.221 -55.4307 2241.2
-63.8202 -55.4307 2241.2
-64.4195 -55.4307 2241.2
-65.0187 -55.4307 2241.2
-65.618 -55.4307 2241.2
-66.2172 -55.4307 2241.2
-66.8165 -55.4307 2241.2
-67.3684 -55.6391 2249.62
-67.9699 -55.6391 2249.62
-68.5714 -55.6391 2249.62
-69.1729 -55.6391 2249.62
-69.7744 -55.6391 2249.62
-70.3759 -55.6391 2249.62
-70.9774 -55.6391 2249.62
-71.5472 -55.8491 2258.11
-72.1509 -55.8491 2258.11
-72.7547 -55.8491 2258.11
-73.3333 -56.0606 2266.67
-73.9163 -56.2738 2275.29
-74.5247 -56.2738 2275.29
-75.1145 -56.4885 2283.97
-75.7252 -56.4885 2283.97
-76.3359 -56.4885 2283.97
-76.9466 -56.4885 2283.97
-77.5573 -56.4885 2283.97
-78.1609 -56.705 2292.72
-78.7739 -56.705 2292.72
-79.3893 -56.4885 2283.97
-80 -56.4885 2283.97
-80.6107 -56.4885 2283.97
-81.2214 -56.4885 2283.97
-81.8321 -56.4885 2283.97
-82.4427 -56.4885 2283.97
-83.0534 -56.4885 2283.97
-83.6641 -56.4885 2283.97
-84.2748 -56.4885 2283.97
-84.8855 -56.4885 2283.97
-85.4962 -56.4885 2283.97
-86.1069 -56.4885 2283.97
-86.7176 -56.4885 2283.97
-87.3282 -56.4885 2283.97
-87.9389 -56.4885 2283.97
-88.5496 -56.4885 2283.97
-89.1603 -56.4885 2283.97
-89.771 -56.4885 2283.97
-90.3817 -56.4885 2283.97
-90.9924 -56.4885 2283.97
-91.6031 -56.4885 2283.97
-92.2137 -56.4885 2283.97
-92.8244 -56.4885 2283.97
-93.4351 -56.4885 2283.97
-94.0458 -56.4885 2283.97
-94.6565 -56.4885 2283.97
-95.2672 -56.4885 2283.97
-95.8779 -56.4885 2283.97
-96.4885 -56.4885 2283.97
-97.1648 -56.705 2292.72
-97.7778 -56.705 2292.72
-98.3908 -56.705 2292.72
-99.0038 -56.705 2292.72
-99.6169 -56.705 2292.72
-100.23 -56.705 2292.72
-100.843 -56.705 2292.72
-101.456 -56.705 2292.72
-102.069 -56.705 2292.72
-102.682 -56.705 2292.72
-103.295 -56.705 2292.72
-103.908 -56.705 2292.72
-104.521 -56.705 2292.72
-105.134 -56.705 2292.72
-105.747 -56.705 2292.72
-106.36 -56.705 2292.72
-106.973 -56.705 2292.72
-107.586 -56.705 2292.72
-108.199 -56.705 2292.72
-108.812 -56.705 2292.72
-109.425 -56.705 2292.72
-110.038 -56.705 2292.72
-110.651 -56.705 2292.72
-111.264 -56.705 2292.72
-111.877 -56.705 2292.72
-112.49 -56.705 2292.72
-113.103 -56.705 2292.72
-113.716 -56.705 2292.72
-114.33 -56.705 2292.72
-114.943 -56.705 2292.72
-115.556 -56.705 2292.72
-116.169 -56.705 2292.72
-116.782 -56.705 2292.72
-117.395 -56.705 2292.72
-118.008 -56.705 2292.72
-118.621 -56.705 2292.72
-119.234 -56.705 2292.72
-119.847 -56.705 2292.72
-120.46 -56.705 2292.72
-121.073 -56.705 2292.72
-121.527 -56.4885 2283.97
-122.137 -56.4885 2283.97
-122.748 -56.4885 2283.97
-123.359 -56.4885 2283.97
-123.969 -56.4885 2283.97
-124.58 -56.4885 2283.97
-125.191 -56.4885 2283.97
-125.802 -56.4885 2283.97
-126.412 -56.4885 2283.97
-127.023 -56.4885 2283.97
-127.634 -56.4885 2283.97
-128.244 -56.4885 2283.97
-128.855 -56.4885 2283.97
-129.466 -56.4885 2283.97
-130.076 -56.4885 2283.97
-130.687 -56.4885 2283.97
-131.298 -56.4885 2283.97
-131.908 -56.4885 2283.97
-132.319 -56.2738 2275.29
-132.928 -56.2738 2275.29
-132.932 -55.6391 2249.62
-133.333 -55.4307 2241.2
-133.933 -55.4307 2241.2
-134.126 -55.0186 2224.54
-134.519 -54.8148 2216.3
-134.706 -54.4118 2200
-135.092 -54.2125 2191.94
-135.273 -53.8182 2176
-135.451 -53.4296 2160.29
-135.429 -52.8571 2137.14
-135.211 -52.1127 2107.04
-135.385 -51.7483 2092.31
-134.795 -50.6849 2049.32
-134.595 -50 2021.62
-134.582 -49.4983 2001.34
-134.751 -49.1694 1988.04
-135.099 -49.0066 1981.46
-135.446 -48.8449 1974.92
-136.346 -49.1694 1988.04
-136.316 -48.6842 1968.42
-137.03 -48.8449 1974.92
-137.558 -48.8449 1974.92
-138.086 -48.8449 1974.92
-138.808 -49.0066 1981.46
-139.535 -49.1694 1988.04
-140.468 -49.4983 2001.34
-141.208 -49.6644 2008.05
-142.373 -50.1695 2028.47
-143.345 -50.5119 2042.32
-144.775 -51.2111 2070.59
-145.329 -51.2111 2070.59
-146.111 -51.3889 2077.78
-146.667 -51.3889 2077.78
-147.222 -51.3889 2077.78
-147.778 -51.3889 2077.78
-148.333 -51.3889 2077.78
-148.889 -51.3889 2077.78
-149.444 -51.3889 2077.78
-150 -51.3889 2077.78
-150.556 -51.3889 2077.78
-151.111 -51.3889 2077.78
-151.667 -51.3889 2077.78
-152.222 -51.3889 2077.78
-152.778 -51.3889 2077.78
-153.333 -51.3889 2077.78
-153.889 -51.3889 2077.78
-154.444 -51.3889 2077.78
-155 -51.3889 2077.78
-155.556 -51.3889 2077.78
-156.111 -51.3889 2077.78
-156.667 -51.3889 2077.78
-157.222 -51.3889 2077.78
-157.778 -51.3889 2077.78
-158.333 -51.3889 2077.78
-158.889 -51.3889 2077.78
-159.444 -51.3889 2077.78
-160 -51.3889 2077.78
-160.556 -51.3889 2077.78
-161.111 -51.3889 2077.78
-161.667 -51.3889 2077.78
-162.222 -51.3889 2077.78
-162.778 -51.3889 2077.78
-163.333 -51.3889 2077.78
-163.889 -51.3889 2077.78
-164.444 -51.3889 2077.78
-165 -51.3889 2077.78
-165.556 -51.3889 2077.78
-166.111 -51.3889 2077.78
-166.667 -51.3889 2077.78
-167.526 -51.5679 2085.02
-168.084 -51.5679 2085.02
-168.641 -51.5679 2085.02
-169.199 -51.5679 2085.02
-169.756 -51.5679 2085.02
-170.629 -51.7483 2092.31
-171.189 -51.7483 2092.31
-171.748 -51.7483 2092.31
-172.308 -51.7483 2092.31
-173.521 -52.1127 2107.04
-174.417 -52.2968 2114.49
-175.319 -52.4823 2121.99
-176.228 -52.669 2129.54
-177.143 -52.8571 2137.14
-179.491 -53.8182 2176
-180.438 -54.0146 2183.94
-181.392 -54.2125 2191.94
-181.978 -54.2125 2191.94
-182.564 -54.2125 2191.94
-183.529 -54.4118 2200
-183.736 -54.2125 2191.94
-184.322 -54.2125 2191.94
-184.908 -54.2125 2191.94
-186.273 -54.6125 2208.12
-186.471 -54.4118 2200
-187.454 -54.6125 2208.12
-188.444 -54.8148 2216.3
-189.851 -55.2239 2232.84
-191.278 -55.6391 2249.62
-192.302 -55.8491 2258.11
-193.764 -56.2738 2275.29
-194.373 -56.2738 2275.29
-195.42 -56.4885 2283.97
-196.031 -56.4885 2283.97
-196.641 -56.4885 2283.97
-197.252 -56.4885 2283.97
-197.863 -56.4885 2283.97
-198.473 -56.4885 2283.97
-199.084 -56.4885 2283.97
-199.695 -56.4885 2283.97
-200.305 -56.4885 2283.97
-200.916 -56.4885 2283.97
-201.527 -56.4885 2283.97
-202.137 -56.4885 2283.97
-202.748 -56.4885 2283.97
-203.359 -56.4885 2283.97
-203.969 -56.4885 2283.97
-204.58 -56.4885 2283.97
-205.191 -56.4885 2283.97
-205.802 -56.4885 2283.97
-206.897 -56.705 2292.72
-207.51 -56.705 2292.72
-208.123 -56.705 2292.72
-208.736 -56.705 2292.72
-208.855 -56.4885 2283.97
-209.466 -56.4885 2283.97
-210.076 -56.4885 2283.97
-210.687 -56.4885 2283.97
-211.298 -56.4885 2283.97
23.3918 -42.807 1749.71
22.924 -42.807 1749.71
22.4561 -42.807 1749.71
22.2874 -42.9326 1754.84
21.8182 -42.9326 1754.84
21.349 -42.9326 1754.84
20.8798 -42.9326 1754.84
20.7059 -43.0588 1760
20.2353 -43.0588 1760
19.7647 -43.0588 1760
19.2941 -43.0588 1760
18.8235 -43.0588 1760
18.3529 -43.0588 1760
17.8824 -43.0588 1760
17.4118 -43.0588 1760
17.2271 -43.1858 1765.19
16.7552 -43.1858 1765.19
16.2832 -43.1858 1765.19
15.8112 -43.1858 1765.19
15.3392 -43.1858 1765.19
14.8673 -43.1858 1765.19
14.3953 -43.1858 1765.19
13.9233 -43.1858 1765.19
13.4513 -43.1858 1765.19
12.9794 -43.1858 1765.19
12.5074 -43.1858 1765.19
12.0354 -43.1858 1765.19
11.8343 -43.3136 1770.41
11.3609 -43.3136 1770.41
10.8876 -43.3136 1770.41
10.4142 -43.3136 1770.41
9.94083 -43.3136 1770.41
10 -43.5714 1780.95
10.6024 -44.0964 1802.41
13.5 -45.75 1870
14.4762 -46.4762 1899.68
16.732 -47.8431 1955.56
16.8421 -48.1579 1968.42
19.5918 -49.7959 2035.37
19.0476 -49.7959 2035.37
20.9059 -51.0105 2085.02
20.6993 -51.1888 2092.31
20.4912 -51.3684 2099.65
19.9298 -51.3684 2099.65
19.3684 -51.3684 2099.65
18.807 -51.3684 2099.65
18.2456 -51.3684 2099.65
18.0282 -51.5493 2107.04
17.4648 -51.5493 2107.04
16.9014 -51.5493 2107.04
16.338 -51.5493 2107.04
15.7746 -51.5493 2107.04
15.2113 -51.5493 2107.04
14.6479 -51.5493 2107.04
14.0845 -51.5493 2107.04
13.5211 -51.5493 2107.04
13.2862 -51.7314 2114.49
12.7208 -51.7314 2114.49
12.1555 -51.7314 2114.49
11.5901 -51.7314 2114.49
11.0247 -51.7314 2114.49
10.4594 -51.7314 2114.49
9.89399 -51.7314 2114.49
9.32862 -51.7314 2114.49
8.76325 -51.7314 2114.49
8.19788 -51.7314 2114.49
7.94326 -51.9149 2121.99
7.37589 -51.9149 2121.99
6.80851 -51.9149 2121.99
6.24113 -51.9149 2121.99
5.67376 -51.9149 2121.99
5.10638 -51.9149 2121.99
4.83986 -52.0996 2129.54
4.27046 -52.0996 2129.54
3.70107 -52.0996 2129.54
3.13167 -52.0996 2129.54
2.56228 -52.0996 2129.54
1.99288 -52.0996 2129.54
1.42349 -52.0996 2129.54
0.854093 -52.0996 2129.54
0.571429 -52.2857 2137.14
-0 -52.2857 2137.14
-0.571429 -52.2857 2137.14
-1.14286 -52.2857 2137.14
-1.71429 -52.2857 2137.14
-2.28571 -52.2857 2137.14
-2.85714 -52.2857 2137.14
-3.42857 -52.2857 2137.14
-4 -52.2857 2137.14
-4.57143 -52.2857 2137.14
-4.87455 -52.4731 2144.8
-5.44803 -52.4731 2144.8
-6.02151 -52.4731 2144.8
-6.59498 -52.4731 2144.8
-7.16846 -52.4731 2144.8
-7.74194 -52.4731 2144.8
-8.31541 -52.4731 2144.8
-8.88889 -52.4731 2144.8
-9.46237 -52.4731 2144.8
-9.78417 -52.6619 2152.52
-10.3597 -52.6619 2152.52
-10.9353 -52.6619 2152.52
-11.5108 -52.6619 2152.52
-12.0863 -52.6619 2152.52
-12.6619 -52.6619 2152.52
-13.2374 -52.6619 2152.52
-13.8129 -52.6619 2152.52
-14.3885 -52.6619 2152.52
-14.7292 -52.852 2160.29
-15.3069 -52.852 2160.29
-15.8845 -52.852 2160.29
-16.4621 -52.852 2160.29
-17.0397 -52.852 2160.29
-17.6173 -52.852 2160.29
-18.1949 -52.852 2160.29
-18.7726 -52.852 2160.29
-19.1304 -53.0435 2168.12
-19.7101 -53.0435 2168.12
-20.2899 -53.0435 2168.12
-20.8696 -53.0435 2168.12
-21.4493 -53.0435 2168.12
-22.029 -53.0435 2168.12
-22.6087 -53.0435 2168.12
-23.1884 -53.0435 2168.12
-23.7681 -53.0435 2168.12
-24.1455 -53.2364 2176
-24.7273 -53.2364 2176
-25.3091 -53.2364 2176
-25.8909 -53.2364 2176
-26.4727 -53.2364 2176
-27.0545 -53.2364 2176
-27.6364 -53.2364 2176
-28.2182 -53.2364 2176
-28.6131 -53.4307 2183.94
-29.1971 -53.4307 2183.94
-29.781 -53.4307 2183.94
-30.365 -53.4307 2183.94
-30.9489 -53.4307 2183.94
-31.5328 -53.4307 2183.94
-31.9414 -53.6264 2191.94
-32.5275 -53.6264 2191.94
-33.1136 -53.6264 2191.94
-33.6996 -53.6264 2191.94
-34.2857 -53.6264 2191.94
-34.8718 -53.6264 2191.94
-35.4579 -53.6264 2191.94
-36.044 -53.6264 2191.94
-36.63 -53.6264 2191.94
-37.0588 -53.8235 2200
-37.6471 -53.8235 2200
-38.2353 -53.8235 2200
-38.8235 -53.8235 2200
-39.4118 -53.8235 2200
-40 -53.8235 2200
-40.5882 -53.8235 2200
-41.1765 -53.8235 2200
-41.7647 -53.8235 2200
-42.3529 -53.8235 2200
-42.8044 -54.0221 2208.12
-43.3948 -54.0221 2208.12
-43.9852 -54.0221 2208.12
-44.5756 -54.0221 2208.12
-45.1661 -54.0221 2208.12
-45.7565 -54.0221 2208.12
-46.3469 -54.0221 2208.12
-46.8148 -54.2222 2216.3
-47.4074 -54.2222 2216.3
-48 -54.2222 2216.3
-48.5926 -54.2222 2216.3
-49.1852 -54.2222 2216.3
-49.7778 -54.2222 2216.3
-50.3704 -54.2222 2216.3
-50.963 -54.2222 2216.3
-51.5556 -54.2222 2216.3
-52.0446 -54.4238 2224.54
-52.6394 -54.4238 2224.54
-53.2342 -54.4238 2224.54
-53.829 -54.4238 2224.54
-54.4238 -54.4238 2224.54
-55.0186 -54.4238 2224.54
-55.6134 -54.4238 2224.54
-56.2082 -54.4238 2224.54
-56.803 -54.4238 2224.54
-57.3134 -54.6269 2232.84
-57.9104 -54.6269 2232.84
-58.5075 -54.6269 2232.84
-59.1045 -54.6269 2232.84
-59.7015 -54.6269 2232.84
-60.2985 -54.6269 2232.84
-60.8955 -54.6269 2232.84
-61.4925 -54.6269 2232.84
-62.0225 -54.8315 2241.2
-62.6217 -54.8315 2241.2
-63.221 -54.8315 2241.2
-63.8202 -54.8315 2241.2
-64.4195 -54.8315 2241.2
-65.0187 -54.8315 2241.2
-65.618 -54.8315 2241.2
-66.2172 -54.8315 2241.2
-66.7669 -55.0376 2249.62
-67.3684 -55.0376 2249.62
-67.9699 -55.0376 2249.62
-68.5714 -55.0376 2249.62
-69.1729 -55.0376 2249.62
-69.7744 -55.0376 2249.62
-70.3759 -55.0376 2249.62
-70.9774 -55.0376 2249.62
-71.5472 -55.2453 2258.11
-72.1509 -55.2453 2258.11
-72.7547 -55.2453 2258.11
-73.3333 -55.4545 2266.67
-73.9163 -55.6654 2275.29
-74.5247 -55.6654 2275.29
-75.1331 -55.6654 2275.29
-75.7252 -55.8779 2283.97
-76.3359 -55.8779 2283.97
-76.9466 -55.8779 2283.97
-77.5573 -55.8779 2283.97
-78.1679 -55.8779 2283.97
-78.7786 -55.8779 2283.97
-79.3893 -55.8779 2283.97
-80 -55.8779 2283.97
-80.6107 -55.8779 2283.97
-81.2214 -55.8779 2283.97
-81.8321 -55.8779 2283.97
-82.4427 -55.8779 2283.97
-83.0534 -55.8779 2283.97
-83.6641 -55.8779 2283.97
-84.2748 -55.8779 2283.97
-84.8855 -55.8779 2283.97
-85.4962 -55.8779 2283.97
-86.1069 -55.8779 2283.97
-86.7176 -55.8779 2283.97
-87.3282 -55.8779 2283.97
-87.9389 -55.8779 2283.97
-88.5496 -55.8779 2283.97
-89.1603 -55.8779 2283.97
-89.771 -55.8779 2283.97
-90.3817 -55.8779 2283.97
-90.9924 -55.8779 2283.97
-91.6031 -55.8779 2283.97
-92.2137 -55.8779 2283.97
-92.8244 -55.8779 2283.97
-93.4351 -55.8779 2283.97
-94.0458 -55.8779 2283.97
-94.7126 -56.092 2292.72
-95.2672 -55.8779 2283.97
-95.8779 -55.8779 2283.97
-96.4885 -55.8779 2283.97
-97.0992 -55.8779 2283.97
-97.7778 -56.092 2292.72
-98.3908 -56.092 2292.72
-99.0038 -56.092 2292.72
-99.6169 -56.092 2292.72
-100.153 -55.8779 2283.97
-100.843 -56.092 2292.72
-101.456 -56.092 2292.72
-102.069 -56.092 2292.72
-102.682 -56.092 2292.72
-103.295 -56.092 2292.72
-103.908 -56.092 2292.72
-104.521 -56.092 2292.72
-105.134 -56.092 2292.72
-105.747 -56.092 2292.72
-106.36 -56.092 2292.72
-106.973 -56.092 2292.72
-107.586 -56.092 2292.72
-108.199 -56.092 2292.72
-108.812 -56.092 2292.72
-109.313 -55.8779 2283.97
-110.038 -56.092 2292.72
-110.651 -56.092 2292.72
-111.264 -56.092 2292.72
-111.877 -56.092 2292.72
-112.49 -56.092 2292.72
-113.103 -56.092 2292.72
-113.716 -56.092 2292.72
-114.33 -56.092 2292.72
-114.943 -56.092 2292.72
-115.556 -56.092 2292.72
-116.169 -56.092 2292.72
-116.641 -55.8779 2283.97
-117.395 -56.092 2292.72
-117.863 -55.8779 2283.97
-118.473 -55.8779 2283.97
-119.084 -55.8779 2283.97
-119.695 -55.8779 2283.97
-120.305 -55.8779 2283.97
-120.916 -55.8779 2283.97
-121.686 -56.092 2292.72
-122.137 -55.8779 2283.97
-122.748 -55.8779 2283.97
-123.359 -55.8779 2283.97
-123.969 -55.8779 2283.97
-124.58 -55.8779 2283.97
-125.191 -55.8779 2283.97
-125.802 -55.8779 2283.97
-126.412 -55.8779 2283.97
-127.023 -55.8779 2283.97
-127.634 -55.8779 2283.97
-128.244 -55.8779 2283.97
-128.855 -55.8779 2283.97
-129.466 -55.8779 2283.97
-130.076 -55.8779 2283.97
-130.687 -55.8779 2283.97
-131.298 -55.8779 2283.97
-131.908 -55.8779 2283.97
-132.519 -55.8779 2283.97
-132.727 -55.4545 2266.67
-133.536 -55.6654 2275.29
-133.736 -55.2453 2258.11
-134.135 -55.0376 2249.62
-134.532 -54.8315 2241.2
-134.519 -54.2222 2216.3
-135.316 -54.4238 2224.54
-135.294 -53.8235 2200
-135.474 -53.4307 2183.94
-135.451 -52.852 2160.29
-135.827 -52.6619 2152.52
-135.406 -51.7314 2114.49
-135 -50.8333 2077.78
-134.608 -49.9659 2042.32
-134.228 -49.1275 2008.05
-134.04 -48.4768 1981.46
-133.856 -47.8431 1955.56
-134.202 -47.6873 1949.19
-134.723 -47.6873 1949.19
-135.244 -47.6873 1949.19
-135.765 -47.6873 1949.19
-136.104 -47.5325 1942.86
-136.808 -47.6873 1949.19
-137.329 -47.6873 1949.19
-138.23 -48 1961.97
-138.947 -48.1579 1968.42
-139.868 -48.4768 1981.46
-140.8 -48.8 1994.67
-141.745 -49.1275 2008.05
-142.703 -49.4595 2021.62
-144.33 -50.3093 2056.36
-145.103 -50.4828 2063.45
-145.655 -50.4828 2063.45
-146.436 -50.6574 2070.59
-146.99 -50.6574 2070.59
-147.543 -50.6574 2070.59
-148.097 -50.6574 2070.59
-148.651 -50.6574 2070.59
-149.204 -50.6574 2070.59
-149.758 -50.6574 2070.59
-150.311 -50.6574 2070.59
-151.111 -50.8333 2077.78
-151.667 -50.8333 2077.78
-152.222 -50.8333 2077.78
-152.778 -50.8333 2077.78
-153.333 -50.8333 2077.78
-153.889 -50.8333 2077.78
-154.444 -50.8333 2077.78
-155 -50.8333 2077.78
-155.556 -50.8333 2077.78
-156.111 -50.8333 2077.78
-156.667 -50.8333 2077.78
-157.222 -50.8333 2077.78
-157.778 -50.8333 2077.78
-158.333 -50.8333 2077.78
-158.889 -50.8333 2077.78
-159.444 -50.8333 2077.78
-160 -50.8333 2077.78
-160.556 -50.8333 2077.78
-161.111 -50.8333 2077.78
-161.667 -50.8333 2077.78
-162.222 -50.8333 2077.78
-162.778 -50.8333 2077.78
-163.333 -50.8333 2077.78
-163.889 -50.8333 2077.78
-164.444 -50.8333 2077.78
-165 -50.8333 2077.78
-165.556 -50.8333 2077.78
-166.111 -50.8333 2077.78
-166.667 -50.8333 2077.78
-167.526 -51.0105 2085.02
-168.084 -51.0105 2085.02
-168.641 -51.0105 2085.02
-169.199 -51.0105 2085.02
-169.756 -51.0105 2085.02
-170.629 -51.1888 2092.31
-171.189 -51.1888 2092.31
-171.748 -51.1888 2092.31
-172.632 -51.3684 2099.65
-173.521 -51.5493 2107.04
-174.417 -51.7314 2114.49
-175.658 -52.0996 2129.54
-177.266 -52.6619 2152.52
-177.842 -52.6619 2152.52
-180.22 -53.6264 2191.94
-181.55 -54.0221 2208.12
-181.765 -53.8235 2200
-185.057 -55.2453 2258.11
-184.089 -54.4238 2224.54
-184.684 -54.4238 2224.54
-185.279 -54.4238 2224.54
-185.874 -54.4238 2224.54
-187.266 -54.8315 2241.2
-187.865 -54.8315 2241.2
-188.06 -54.6269 2232.84
-188.657 -54.6269 2232.84
-189.663 -54.8315 2241.2
-190.677 -55.0376 2249.62
-192.121 -55.4545 2266.67
-192.727 -55.4545 2266.67
-193.764 -55.6654 2275.29
-194.809 -55.8779 2283.97
-195.42 -55.8779 2283.97
-196.031 -55.8779 2283.97
-196.641 -55.8779 2283.97
-197.252 -55.8779 2283.97
-197.863 -55.8779 2283.97
-198.473 -55.8779 2283.97
-199.084 -55.8779 2283.97
-199.695 -55.8779 2283.97
-200.305 -55.8779 2283.97
-200.916 -55.8779 2283.97
-201.527 -55.8779 2283.97
-202.137 -55.8779 2283.97
-202.748 -55.8779 2283.97
-203.359 -55.8779 2283.97
-203.969 -55.8779 2283.97
-204.58 -55.8779 2283.97
-205.191 -55.8779 2283.97
-205.802 -55.8779 2283.97
-206.412 -55.8779 2283.97
-207.023 -55.8779 2283.97
-207.634 -55.8779 2283.97
-208.244 -55.8779 2283.97
-209.349 -56.092 2292.72
-209.466 -55.8779 2283.97
-210.076 -55.8779 2283.97
-210.687 -55.8779 2283.97
-211.298 -55.8779 2283.97
23.3918 -42.3392 1749.71
22.924 -42.3392 1749.71
22.4561 -42.3392 1749.71
21.9883 -42.3392 1749.71
21.8182 -42.4633 1754.84
21.349 -42.4633 1754.84
20.8798 -42.4633 1754.84
20.7059 -42.5882 1760
20.2353 -42.5882 1760
19.7647 -42.5882 1760
19.2941 -42.5882 1760
18.8235 -42.5882 1760
18.3529 -42.5882 1760
17.8824 -42.5882 1760
17.4118 -42.5882 1760
17.2271 -42.7139 1765.19
16.7552 -42.7139 1765.19
16.2832 -42.7139 1765.19
15.8112 -42.7139 1765.19
15.3392 -42.7139 1765.19
14.8673 -42.7139 1765.19
14.3953 -42.7139 1765.19
13.9233 -42.7139 1765.19
13.4513 -42.7139 1765.19
12.9794 -42.7139 1765.19
12.5074 -42.7139 1765.19
12.3077 -42.8402 1770.41
11.8343 -42.8402 1770.41
11.3609 -42.8402 1770.41
10.8876 -42.8402 1770.41
10.6825 -42.9674 1775.67
10.2077 -42.9674 1775.67
10 -43.0952 1780.95
11.9878 -44.2813 1829.97
12.6316 -44.8297 1852.63
13.5849 -45.5346 1881.76
14.8718 -46.4103 1917.95
16.2092 -47.3203 1955.56
16.9536 -47.947 1981.46
19.726 -49.589 2049.32
18.1695 -49.0847 2028.47
19.654 -50.1038 2070.59
20.1399 -50.6294 2092.31
19.5804 -50.6294 2092.31
19.3684 -50.807 2099.65
18.807 -50.807 2099.65
18.2456 -50.807 2099.65
18.0282 -50.9859 2107.04
17.4648 -50.9859 2107.04
16.9014 -50.9859 2107.04
