-180.071 -77.7385 2114.49
-180.636 -77.7385 2114.49
-181.201 -77.7385 2114.49
-181.767 -77.7385 2114.49
-182.332 -77.7385 2114.49
-182.898 -77.7385 2114.49
-183.463 -77.7385 2114.49
-184.028 -77.7385 2114.49
-184.594 -77.7385 2114.49
-185.159 -77.7385 2114.49
-185.724 -77.7385 2114.49
-186.29 -77.7385 2114.49
-186.855 -77.7385 2114.49
-187.42 -77.7385 2114.49
-187.986 -77.7385 2114.49
-188.551 -77.7385 2114.49
-189.117 -77.7385 2114.49
-189.682 -77.7385 2114.49
-190.247 -77.7385 2114.49
-190.813 -77.7385 2114.49
-191.378 -77.7385 2114.49
-191.943 -77.7385 2114.49
-192.509 -77.7385 2114.49
-193.074 -77.7385 2114.49
-193.64 -77.7385 2114.49
-194.205 -77.7385 2114.49
-194.77 -77.7385 2114.49
-195.336 -77.7385 2114.49
-195.901 -77.7385 2114.49
-196.466 -77.7385 2114.49
-197.865 -78.2918 2129.54
-200.58 -79.7101 2168.12
-203.852 -81.4815 2216.3
-207.273 -83.3333 2266.67
-210.347 -84.9421 2310.42
-214.071 -86.9565 2365.22
-216.32 -88 2393.6
-216.96 -88 2393.6
-218.153 -88.3534 2403.21
-218.795 -88.3534 2403.21
-219.438 -88.3534 2403.21
-220.08 -88.3534 2403.21
-220.723 -88.3534 2403.21
51.6605 -80.5904 2208.12
51.0701 -80.5904 2208.12
50.4797 -80.5904 2208.12
49.8893 -80.5904 2208.12
49.2989 -80.5904 2208.12
48.7085 -80.5904 2208.12
48.1181 -80.5904 2208.12
47.5277 -80.5904 2208.12
46.9373 -80.5904 2208.12
46.3469 -80.5904 2208.12
45.7565 -80.5904 2208.12
45.1661 -80.5904 2208.12
44.5756 -80.5904 2208.12
43.9852 -80.5904 2208.12
43.3948 -80.5904 2208.12
42.8044 -80.5904 2208.12
41.7647 -80.2941 2200
41.1765 -80.2941 2200
40.5882 -80.2941 2200
40 -80.2941 2200
39.4118 -80.2941 2200
38.8235 -80.2941 2200
38.2353 -80.2941 2200
37.6471 -80.2941 2200
37.0588 -80.2941 2200
36.4706 -80.2941 2200
35.4579 -80 2191.94
34.8718 -80 2191.94
34.2857 -80 2191.94
33.6996 -80 2191.94
33.1136 -80 2191.94
32.5275 -80 2191.94
31.5328 -79.708 2183.94
30.9489 -79.708 2183.94
30.365 -79.708 2183.94
29.781 -79.708 2183.94
29.1971 -79.708 2183.94
28.6131 -79.708 2183.94
28.0292 -79.708 2183.94
27.4453 -79.708 2183.94
27.2527 -80 2191.94
26.2774 -79.708 2183.94
25.6934 -79.708 2183.94
25.1095 -79.708 2183.94
24.5255 -79.708 2183.94
23.9416 -79.708 2183.94
22.9818 -79.4182 2176
22.4 -79.4182 2176
21.8182 -79.4182 2176
21.2364 -79.4182 2176
20.6545 -79.4182 2176
20.0727 -79.4182 2176
19.4909 -79.4182 2176
18.9091 -79.4182 2176
18.3273 -79.4182 2176
17.7455 -79.4182 2176
17.1636 -79.4182 2176
16.5818 -79.4182 2176
16 -79.4182 2176
15.4182 -79.4182 2176
14.8364 -79.4182 2176
13.913 -79.1304 2168.12
13.3333 -79.1304 2168.12
12.7536 -79.1304 2168.12
12.1739 -79.1304 2168.12
11.5942 -79.1304 2168.12
11.0145 -79.1304 2168.12
10.4348 -79.1304 2168.12
9.85507 -79.1304 2168.12
9.27536 -79.1304 2168.12
8.69565 -79.1304 2168.12
7.79783 -78.8448 2160.29
7.22022 -78.8448 2160.29
6.6426 -78.8448 2160.29
6.06498 -78.8448 2160.29
5.48736 -78.8448 2160.29
4.90975 -78.8448 2160.29
4.33213 -78.8448 2160.29
3.75451 -78.8448 2160.29
3.1769 -78.8448 2160.29
2.59928 -78.8448 2160.29
1.72662 -78.5612 2152.52
1.15108 -78.5612 2152.52
0.57554 -78.5612 2152.52
-0 -78.5612 2152.52
-0.57554 -78.5612 2152.52
-1.15108 -78.5612 2152.52
-1.72662 -78.5612 2152.52
-2.30216 -78.5612 2152.52
-2.8777 -78.5612 2152.52
-3.7276 -78.2796 2144.8
-4.30108 -78.2796 2144.8
-4.87455 -78.2796 2144.8
-5.44803 -78.2796 2144.8
-6.02151 -78.2796 2144.8
-6.59498 -78.2796 2144.8
-7.16846 -78.2796 2144.8
-7.74194 -78.2796 2144.8
-8.31541 -78.2796 2144.8
-8.88889 -78.2796 2144.8
-9.46237 -78.2796 2144.8
-10.0358 -78.2796 2144.8
-10.6093 -78.2796 2144.8
-11.1828 -78.2796 2144.8
-11.7563 -78.2796 2144.8
-12.3297 -78.2796 2144.8
-12.9032 -78.2796 2144.8
-13.4767 -78.2796 2144.8
-14.0502 -78.2796 2144.8
-14.6237 -78.2796 2144.8
-15.4286 -78 2137.14
-16 -78 2137.14
-16.5714 -78 2137.14
-17.1429 -78 2137.14
-17.9359 -77.7224 2129.54
-18.5053 -77.7224 2129.54
-19.5053 -77.1731 2114.49
-20.4912 -76.6316 2099.65
-21.6667 -75.8333 2077.78
-22.6207 -75.3103 2063.45
-23.3677 -75.0515 2056.36
-23.7241 -75.3103 2063.45
-23.8889 -75.8333 2077.78
-24.0559 -76.3636 2092.31
-24.2254 -76.9014 2107.04
-24.3972 -77.4468 2121.99
-24.9645 -77.4468 2121.99
-25.3381 -77.7224 2129.54
-25.9075 -77.7224 2129.54
-26.4769 -77.7224 2129.54
-27.0463 -77.7224 2129.54
-27.8014 -77.4468 2121.99
-28.3688 -77.4468 2121.99
-28.9362 -77.4468 2121.99
-29.5035 -77.4468 2121.99
-30.0709 -77.4468 2121.99
-30.6383 -77.4468 2121.99
-31.2057 -77.4468 2121.99
-31.773 -77.4468 2121.99
-32.3404 -77.4468 2121.99
-32.9078 -77.4468 2121.99
-33.6396 -77.1731 2114.49
-34.2049 -77.1731 2114.49
-34.7703 -77.1731 2114.49
-35.3357 -77.1731 2114.49
-35.9011 -77.1731 2114.49
-36.4664 -77.1731 2114.49
-37.0318 -77.1731 2114.49
-37.5972 -77.1731 2114.49
-38.1625 -77.1731 2114.49
-38.7279 -77.1731 2114.49
-39.2933 -77.1731 2114.49
-39.8587 -77.1731 2114.49
-40.424 -77.1731 2114.49
-40.9894 -77.1731 2114.49
-41.5548 -77.1731 2114.49
-42.2535 -76.9014 2107.04
-42.8169 -76.9014 2107.04
-43.3803 -76.9014 2107.04
-43.9437 -76.9014 2107.04
-44.507 -76.9014 2107.04
-45.0704 -76.9014 2107.04
-45.6338 -76.9014 2107.04
-46.1972 -76.9014 2107.04
-46.7606 -76.9014 2107.04
-47.3239 -76.9014 2107.04
-48 -76.6316 2099.65
-48.5614 -76.6316 2099.65
-49.1228 -76.6316 2099.65
-49.6842 -76.6316 2099.65
-50.2456 -76.6316 2099.65
-50.807 -76.6316 2099.65
-51.3684 -76.6316 2099.65
-51.9298 -76.6316 2099.65
-52.4912 -76.6316 2099.65
-53.0526 -76.6316 2099.65
-53.614 -76.6316 2099.65
-54.1754 -76.6316 2099.65
-54.7368 -76.6316 2099.65
-55.2982 -76.6316 2099.65
-55.8596 -76.6316 2099.65
-56.4211 -76.6316 2099.65
-56.9825 -76.6316 2099.65
-57.5439 -76.6316 2099.65
-58.1053 -76.6316 2099.65
-58.6667 -76.6316 2099.65
-59.2281 -76.6316 2099.65
-59.7895 -76.6316 2099.65
-60.3509 -76.6316 2099.65
-60.9123 -76.6316 2099.65
-61.4085 -76.9014 2107.04
-61.9718 -76.9014 2107.04
-62.5352 -76.9014 2107.04
-63.0986 -76.9014 2107.04
-63.662 -76.9014 2107.04
-64.2254 -76.9014 2107.04
-64.7887 -76.9014 2107.04
-65.3521 -76.9014 2107.04
-65.9155 -76.9014 2107.04
-66.4789 -76.9014 2107.04
-66.9965 -77.1731 2114.49
-67.5618 -77.1731 2114.49
-68.1272 -77.1731 2114.49
-68.6926 -77.1731 2114.49
-69.258 -77.1731 2114.49
-69.8233 -77.1731 2114.49
-70.3887 -77.1731 2114.49
-70.9541 -77.1731 2114.49
-71.5194 -77.1731 2114.49
-72.0848 -77.1731 2114.49
-72.6241 -77.4468 2121.99
-73.1915 -77.4468 2121.99
-73.7589 -77.4468 2121.99
-74.3262 -77.4468 2121.99
-74.8936 -77.4468 2121.99
-75.461 -77.4468 2121.99
-76.0284 -77.4468 2121.99
-76.5957 -77.4468 2121.99
-77.1631 -77.4468 2121.99
-77.7305 -77.4468 2121.99
-78.2918 -77.7224 2129.54
-78.8612 -77.7224 2129.54
-79.4306 -77.7224 2129.54
-80 -77.7224 2129.54
-80.5674 -77.4468 2121.99
-81.1307 -77.1731 2114.49
-81.6783 -76.3636 2092.31
-82.2145 -75.5709 2070.59
-82.7211 -74.2857 2035.37
-83.2323 -73.5354 2014.81
-83.7333 -72.8 1994.67
-84.2525 -72.5581 1988.04
-84.7682 -72.3179 1981.46
-85.298 -72.3179 1981.46
-85.8278 -72.3179 1981.46
-86.4 -72.8 1994.67
-86.9799 -73.2886 2008.05
-87.619 -74.2857 2035.37
-88.3045 -75.5709 2070.59
-88.951 -76.3636 2092.31
-89.6454 -77.4468 2121.99
-90.2857 -78 2137.14
-90.8571 -78 2137.14
-91.4286 -78 2137.14
-92 -78 2137.14
-92.6165 -78.2796 2144.8
-93.19 -78.2796 2144.8
-93.7634 -78.2796 2144.8
-94.3369 -78.2796 2144.8
-94.9104 -78.2796 2144.8
-95.5396 -78.5612 2152.52
-96.1151 -78.5612 2152.52
-96.6906 -78.5612 2152.52
-97.2662 -78.5612 2152.52
-97.8417 -78.5612 2152.52
-98.4173 -78.5612 2152.52
-98.9928 -78.5612 2152.52
-99.5683 -78.5612 2152.52
-100.144 -78.5612 2152.52
-100.719 -78.5612 2152.52
-101.372 -78.8448 2160.29
-101.949 -78.8448 2160.29
-102.527 -78.8448 2160.29
-103.022 -78.5612 2152.52
-103.597 -78.5612 2152.52
-104.173 -78.5612 2152.52
-104.659 -78.2796 2144.8
-105.143 -78 2137.14
-105.623 -77.7224 2129.54
-106.099 -77.4468 2121.99
-106.572 -77.1731 2114.49
-107.138 -77.1731 2114.49
-107.703 -77.1731 2114.49
-108.269 -77.1731 2114.49
-108.834 -77.1731 2114.49
-109.399 -77.1731 2114.49
-109.965 -77.1731 2114.49
-110.53 -77.1731 2114.49
-111.095 -77.1731 2114.49
-111.661 -77.1731 2114.49
-112.226 -77.1731 2114.49
-112.792 -77.1731 2114.49
-113.357 -77.1731 2114.49
-113.922 -77.1731 2114.49
-114.488 -77.1731 2114.49
-115.053 -77.1731 2114.49
-115.493 -76.9014 2107.04
-116.056 -76.9014 2107.04
-116.62 -76.9014 2107.04
-117.183 -76.9014 2107.04
-117.88 -77.1731 2114.49
-118.857 -78 2137.14
-119.856 -78.8448 2160.29
-121.026 -80 2191.94
-122.23 -81.1896 2224.54
-123.308 -82.1053 2249.62
-124.242 -82.7273 2266.67
-125.191 -83.3588 2283.97
-125.977 -83.6782 2292.72
-126.769 -84 2301.54
-127.568 -84.3243 2310.42
-127.816 -83.6782 2292.72
-127.879 -82.7273 2266.67
-127.94 -81.7978 2241.2
-128.178 -81.1896 2224.54
-129.323 -82.1053 2249.62
-131.673 -84.9805 2328.4
-135.082 -89.5082 2452.46
-139.13 -94.9565 2601.74
-143.704 -101.111 2770.37
-147.246 -105.507 2890.82
-149.703 -108.119 2962.38
-150.846 -108.657 2977.11
-151.642 -108.657 2977.11
-152.079 -108.119 2962.38
-151.111 -105.507 2890.82
-148.257 -100.183 2744.95
-144.549 -93.7339 2568.24
-140.8 -87.36 2393.6
-138.182 -82.7273 2266.67
-135.827 -78.5612 2152.52
-135.603 -77.4468 2121.99
-135.972 -77.1731 2114.49
-136.537 -77.1731 2114.49
-137.102 -77.1731 2114.49
-137.668 -77.1731 2114.49
-138.233 -77.1731 2114.49
-138.799 -77.1731 2114.49
-139.364 -77.1731 2114.49
-139.929 -77.1731 2114.49
-140.495 -77.1731 2114.49
-141.06 -77.1731 2114.49
-141.625 -77.1731 2114.49
-142.191 -77.1731 2114.49
-142.756 -77.1731 2114.49
-143.322 -77.1731 2114.49
-143.887 -77.1731 2114.49
-144.452 -77.1731 2114.49
-145.018 -77.1731 2114.49
-145.583 -77.1731 2114.49
-146.148 -77.1731 2114.49
-146.714 -77.1731 2114.49
-147.279 -77.1731 2114.49
-147.845 -77.1731 2114.49
-148.652 -77.4468 2121.99
-150.216 -78.5612 2152.52
-153.16 -81.1896 2224.54
-157.198 -84.9805 2328.4
-161.967 -89.5082 2452.46
-167.273 -94.5455 2590.48
-171.946 -98.8235 2707.69
-175.256 -101.581 2783.26
-178.286 -104 2849.52
-180.483 -105.507 2890.82
-183.251 -107.586 2947.78
-185.075 -108.657 2977.11
-189.055 -108.657 2977.11
-188.768 -107.586 2947.78
-187.44 -105.507 2890.82
-186.667 -104 2849.52
-184.93 -101.581 2783.26
-182.342 -98.3784 2695.5
-179.048 -94.5455 2590.48
-174.041 -89.1429 2442.45
-169.922 -84.6512 2319.38
-166.84 -81.1896 2224.54
-164.604 -78.5612 2152.52
-163.675 -77.1731 2114.49
-164.24 -77.1731 2114.49
-164.806 -77.1731 2114.49
-165.371 -77.1731 2114.49
-165.936 -77.1731 2114.49
-166.502 -77.1731 2114.49
-167.067 -77.1731 2114.49
-167.633 -77.1731 2114.49
-168.198 -77.1731 2114.49
-168.763 -77.1731 2114.49
-169.329 -77.1731 2114.49
-169.894 -77.1731 2114.49
-170.459 -77.1731 2114.49
-171.025 -77.1731 2114.49
-171.59 -77.1731 2114.49
-172.155 -77.1731 2114.49
-172.721 -77.1731 2114.49
-173.286 -77.1731 2114.49
-173.852 -77.1731 2114.49
-174.417 -77.1731 2114.49
-174.982 -77.1731 2114.49
-175.548 -77.1731 2114.49
-176.113 -77.1731 2114.49
-176.678 -77.1731 2114.49
-177.589 -77.4468 2121.99
-177.809 -77.1731 2114.49
-178.375 -77.1731 2114.49
-178.94 -77.1731 2114.49
-179.505 -77.1731 2114.49
-180.071 -77.1731 2114.49
-180.636 -77.1731 2114.49
-181.201 -77.1731 2114.49
-181.767 -77.1731 2114.49
-182.695 -77.4468 2121.99
-183.262 -77.4468 2121.99
-183.83 -77.4468 2121.99
-184.397 -77.4468 2121.99
-185.338 -77.7224 2129.54
-185.907 -77.7224 2129.54
-186.477 -77.7224 2129.54
-187.046 -77.7224 2129.54
-187.234 -77.4468 2121.99
-187.801 -77.4468 2121.99
-188.369 -77.4468 2121.99
-188.936 -77.4468 2121.99
-189.117 -77.1731 2114.49
-189.682 -77.1731 2114.49
-190.247 -77.1731 2114.49
-190.813 -77.1731 2114.49
-191.378 -77.1731 2114.49
-191.943 -77.1731 2114.49
-192.509 -77.1731 2114.49
-193.074 -77.1731 2114.49
-193.64 -77.1731 2114.49
-194.205 -77.1731 2114.49
-194.77 -77.1731 2114.49
-195.336 -77.1731 2114.49
-195.901 -77.1731 2114.49
-196.466 -77.1731 2114.49
-197.447 -77.4468 2121.99
-199.283 -78.2796 2144.8
-201.159 -79.1304 2168.12
-203.077 -80 2191.94
-205.502 -81.1896 2224.54
-207.041 -81.7978 2241.2
-208.604 -82.4151 2258.11
-209.208 -82.4151 2258.11
-209.811 -82.4151 2258.11
-210.415 -82.4151 2258.11
-211.019 -82.4151 2258.11
-211.623 -82.4151 2258.11
-212.727 -82.7273 2266.67
51.6605 -80 2208.12
51.0701 -80 2208.12
50.4797 -80 2208.12
49.8893 -80 2208.12
49.2989 -80 2208.12
48.7085 -80 2208.12
48.1181 -80 2208.12
47.5277 -80 2208.12
46.9373 -80 2208.12
46.3469 -80 2208.12
45.7565 -80 2208.12
45.1661 -80 2208.12
44.5756 -80 2208.12
43.9852 -80 2208.12
43.3948 -80 2208.12
42.8044 -80 2208.12
41.7647 -79.7059 2200
41.1765 -79.7059 2200
40.5882 -79.7059 2200
40 -79.7059 2200
39.4118 -79.7059 2200
38.8235 -79.7059 2200
38.2353 -79.7059 2200
37.6471 -79.7059 2200
37.0588 -79.7059 2200
36.4706 -79.7059 2200
35.4579 -79.4139 2191.94
34.8718 -79.4139 2191.94
34.2857 -79.4139 2191.94
33.6996 -79.4139 2191.94
33.1136 -79.4139 2191.94
32.5275 -79.4139 2191.94
31.5328 -79.1241 2183.94
30.9489 -79.1241 2183.94
30.365 -79.1241 2183.94
29.781 -79.1241 2183.94
29.1971 -79.1241 2183.94
28.6131 -79.1241 2183.94
28.0292 -79.1241 2183.94
27.4453 -79.1241 2183.94
26.8613 -79.1241 2183.94
26.2774 -79.1241 2183.94
25.6934 -79.1241 2183.94
25.1095 -79.1241 2183.94
24.5255 -79.1241 2183.94
23.9416 -79.1241 2183.94
22.9818 -78.8364 2176
22.4 -78.8364 2176
21.8182 -78.8364 2176
21.2364 -78.8364 2176
20.6545 -78.8364 2176
20.0727 -78.8364 2176
19.4909 -78.8364 2176
18.9091 -78.8364 2176
18.3273 -78.8364 2176
17.7455 -78.8364 2176
17.1636 -78.8364 2176
16.5818 -78.8364 2176
16 -78.8364 2176
15.4182 -78.8364 2176
14.8364 -78.8364 2176
13.913 -78.5507 2168.12
13.3333 -78.5507 2168.12
12.7536 -78.5507 2168.12
12.1739 -78.5507 2168.12
11.5942 -78.5507 2168.12
11.0145 -78.5507 2168.12
10.4348 -78.5507 2168.12
9.85507 -78.5507 2168.12
9.27536 -78.5507 2168.12
8.69565 -78.5507 2168.12
7.79783 -78.2671 2160.29
7.22022 -78.2671 2160.29
6.6426 -78.2671 2160.29
6.06498 -78.2671 2160.29
5.48736 -78.2671 2160.29
4.90975 -78.2671 2160.29
4.33213 -78.2671 2160.29
3.75451 -78.2671 2160.29
3.1769 -78.2671 2160.29
2.59928 -78.2671 2160.29
1.72662 -77.9856 2152.52
1.15108 -77.9856 2152.52
0.57554 -77.9856 2152.52
-0 -77.9856 2152.52
-0.57554 -77.9856 2152.52
-1.15108 -77.9856 2152.52
-1.72662 -77.9856 2152.52
-2.30216 -77.9856 2152.52
-2.8777 -77.9856 2152.52
-3.7276 -77.7061 2144.8
-4.30108 -77.7061 2144.8
-4.87455 -77.7061 2144.8
-5.44803 -77.7061 2144.8
-6.02151 -77.7061 2144.8
-6.59498 -77.7061 2144.8
-7.16846 -77.7061 2144.8
-7.74194 -77.7061 2144.8
-8.31541 -77.7061 2144.8
-8.88889 -77.7061 2144.8
-9.46237 -77.7061 2144.8
-10.0358 -77.7061 2144.8
-10.6093 -77.7061 2144.8
-11.1828 -77.7061 2144.8
-11.7563 -77.7061 2144.8
-12.3297 -77.7061 2144.8
-12.9032 -77.7061 2144.8
-13.4767 -77.7061 2144.8
-14.0502 -77.7061 2144.8
-14.8571 -77.4286 2137.14
-15.4286 -77.4286 2137.14
-16 -77.4286 2137.14
-16.5714 -77.4286 2137.14
-17.3665 -77.153 2129.54
-17.9359 -77.153 2129.54
-18.7234 -76.8794 2121.99
-19.7183 -76.338 2107.04
-20.6993 -75.8042 2092.31
-21.6667 -75.2778 2077.78
-22.6207 -74.7586 2063.45
-23.3677 -74.5017 2056.36
-23.7241 -74.7586 2063.45
-23.8889 -75.2778 2077.78
-24.0559 -75.8042 2092.31
-24.0283 -76.6078 2114.49
-24.3972 -76.8794 2121.99
-24.9645 -76.8794 2121.99
-25.3381 -77.153 2129.54
-25.9075 -77.153 2129.54
-26.4769 -77.153 2129.54
-27.0463 -77.153 2129.54
-27.8014 -76.8794 2121.99
-28.3688 -76.8794 2121.99
-28.9362 -76.8794 2121.99
-29.5035 -76.8794 2121.99
-30.0709 -76.8794 2121.99
-30.6383 -76.8794 2121.99
-31.2057 -76.8794 2121.99
-31.773 -76.8794 2121.99
-32.3404 -76.8794 2121.99
-32.9078 -76.8794 2121.99
-33.6396 -76.6078 2114.49
-34.2049 -76.6078 2114.49
-34.7703 -76.6078 2114.49
-35.3357 -76.6078 2114.49
-35.9011 -76.6078 2114.49
-36.4664 -76.6078 2114.49
-37.0318 -76.6078 2114.49
-37.5972 -76.6078 2114.49
-38.1625 -76.6078 2114.49
-38.7279 -76.6078 2114.49
-39.2933 -76.6078 2114.49
-39.8587 -76.6078 2114.49
-40.424 -76.6078 2114.49
-40.9894 -76.6078 2114.49
-41.6901 -76.338 2107.04
-42.2535 -76.338 2107.04
-42.8169 -76.338 2107.04
-43.3803 -76.338 2107.04
-43.9437 -76.338 2107.04
-44.507 -76.338 2107.04
-45.0704 -76.338 2107.04
-45.6338 -76.338 2107.04
-46.1972 -76.338 2107.04
-46.7606 -76.338 2107.04
-47.3239 -76.338 2107.04
-48 -76.0702 2099.65
-48.5614 -76.0702 2099.65
-49.1228 -76.0702 2099.65
-49.6842 -76.0702 2099.65
-50.2456 -76.0702 2099.65
-50.807 -76.0702 2099.65
-51.3684 -76.0702 2099.65
-51.9298 -76.0702 2099.65
-52.4912 -76.0702 2099.65
-53.0526 -76.0702 2099.65
-53.614 -76.0702 2099.65
-54.1754 -76.0702 2099.65
-54.7368 -76.0702 2099.65
-55.2982 -76.0702 2099.65
-55.8596 -76.0702 2099.65
-56.4211 -76.0702 2099.65
-56.9825 -76.0702 2099.65
-57.5439 -76.0702 2099.65
-58.1053 -76.0702 2099.65
-58.6667 -76.0702 2099.65
-59.2281 -76.0702 2099.65
-59.7895 -76.0702 2099.65
-60.3509 -76.0702 2099.65
-60.9123 -76.0702 2099.65
-61.4085 -76.338 2107.04
-61.9718 -76.338 2107.04
-62.5352 -76.338 2107.04
-63.0986 -76.338 2107.04
-63.662 -76.338 2107.04
-64.2254 -76.338 2107.04
-64.7887 -76.338 2107.04
-65.3521 -76.338 2107.04
-65.9155 -76.338 2107.04
-66.4789 -76.338 2107.04
-66.9965 -76.6078 2114.49
-67.5618 -76.6078 2114.49
-68.1272 -76.6078 2114.49
-68.6926 -76.6078 2114.49
-69.258 -76.6078 2114.49
-69.8233 -76.6078 2114.49
-70.3887 -76.6078 2114.49
-70.9541 -76.6078 2114.49
-71.5194 -76.6078 2114.49
-72.0848 -76.6078 2114.49
-72.6241 -76.8794 2121.99
-73.1915 -76.8794 2121.99
-73.7589 -76.8794 2121.99
-74.3262 -76.8794 2121.99
-74.8936 -76.8794 2121.99
-75.461 -76.8794 2121.99
-76.0284 -76.8794 2121.99
-76.5957 -76.8794 2121.99
-77.1631 -76.8794 2121.99
-77.7305 -76.8794 2121.99
-78.2918 -77.153 2129.54
-78.8612 -77.153 2129.54
-79.4306 -77.153 2129.54
-80 -77.153 2129.54
-80.5674 -76.8794 2121.99
-81.1307 -76.6078 2114.49
-81.6783 -75.8042 2092.31
-82.2145 -75.0173 2070.59
-82.7211 -73.7415 2035.37
-83.2323 -72.9966 2014.81
-83.7333 -72.2667 1994.67
-84.2525 -72.0266 1988.04
-84.7682 -71.7881 1981.46
-85.298 -71.7881 1981.46
-85.8278 -71.7881 1981.46
-86.3787 -72.0266 1988.04
-86.9799 -72.7517 2008.05
-87.619 -73.7415 2035.37
-88.2759 -74.7586 2063.45
-88.9199 -75.5401 2085.02
-89.5775 -76.338 2107.04
-90.2128 -76.8794 2121.99
-90.8185 -77.153 2129.54
-91.4286 -77.4286 2137.14
-92 -77.4286 2137.14
-92.5714 -77.4286 2137.14
-93.19 -77.7061 2144.8
-93.7634 -77.7061 2144.8
-94.3369 -77.7061 2144.8
-94.9104 -77.7061 2144.8
-95.5396 -77.9856 2152.52
-96.1151 -77.9856 2152.52
-96.6906 -77.9856 2152.52
-97.2662 -77.9856 2152.52
-97.8417 -77.9856 2152.52
-98.4173 -77.9856 2152.52
-98.9928 -77.9856 2152.52
-99.5683 -77.9856 2152.52
-100.144 -77.9856 2152.52
-100.719 -77.9856 2152.52
-101.372 -78.2671 2160.29
-101.871 -77.9856 2152.52
-102.446 -77.9856 2152.52
-103.022 -77.9856 2152.52
-103.597 -77.9856 2152.52
-104.173 -77.9856 2152.52
-104.659 -77.7061 2144.8
-105.143 -77.4286 2137.14
-105.623 -77.153 2129.54
-106.099 -76.8794 2121.99
-106.572 -76.6078 2114.49
-107.138 -76.6078 2114.49
-107.703 -76.6078 2114.49
-108.269 -76.6078 2114.49
-108.834 -76.6078 2114.49
-109.399 -76.6078 2114.49
-109.965 -76.6078 2114.49
-110.53 -76.6078 2114.49
-111.095 -76.6078 2114.49
-111.661 -76.6078 2114.49
-112.226 -76.6078 2114.49
-112.792 -76.6078 2114.49
-113.357 -76.6078 2114.49
-113.922 -76.6078 2114.49
-114.488 -76.6078 2114.49
-115.053 -76.6078 2114.49
-115.493 -76.338 2107.04
-116.056 -76.338 2107.04
-116.62 -76.338 2107.04
-117.183 -76.338 2107.04
-117.746 -76.338 2107.04
-118.445 -76.6078 2114.49
-119.288 -77.153 2129.54
-120 -77.4286 2137.14
-120.863 -77.9856 2152.52
-121.588 -78.2671 2160.29
-122.473 -78.8364 2176
-123.37 -79.4139 2191.94
-124.118 -79.7059 2200
-125.037 -80.2963 2216.3
-125.799 -80.5948 2224.54
-126.222 -80.2963 2216.3
-126.815 -80.2963 2216.3
-127.232 -80 2208.12
-127.823 -80 2208.12
-129.139 -81.1985 2241.2
-131.473 -84.031 2319.38
-134.634 -88.1301 2432.52
-138.621 -93.4483 2579.31
-142.545 -98.5455 2720
-145.972 -102.749 2836.02
-148.019 -104.734 2890.82
-149.126 -105.243 2904.85
-149.903 -105.243 2904.85
-150.338 -104.734 2890.82
-149.434 -102.264 2822.64
-147.33 -98.0995 2707.69
-143.193 -91.0924 2514.29
-140.317 -86.0317 2374.6
-137.744 -81.5038 2249.62
-136.029 -78.2671 2160.29
-135.406 -76.6078 2114.49
-135.972 -76.6078 2114.49
-136.537 -76.6078 2114.49
-137.102 -76.6078 2114.49
-137.668 -76.6078 2114.49
-138.233 -76.6078 2114.49
-138.799 -76.6078 2114.49
-139.364 -76.6078 2114.49
-139.929 -76.6078 2114.49
-140.495 -76.6078 2114.49
-141.06 -76.6078 2114.49
-141.625 -76.6078 2114.49
-142.191 -76.6078 2114.49
-142.756 -76.6078 2114.49
-143.322 -76.6078 2114.49
-143.887 -76.6078 2114.49
-144.452 -76.6078 2114.49
-145.018 -76.6078 2114.49
-145.583 -76.6078 2114.49
-146.148 -76.6078 2114.49
-146.714 -76.6078 2114.49
-147.279 -76.6078 2114.49
-147.845 -76.6078 2114.49
-148.652 -76.8794 2121.99
-150.469 -78.2671 2160.29
-153.708 -81.1985 2241.2
-158.419 -85.6917 2365.22
-164.746 -91.8644 2535.59
-170.404 -97.2197 2683.41
-175.849 -102.264 2822.64
-179.417 -105.243 2904.85
-181.675 -106.798 2947.78
-182.97 -107.327 2962.38
-184.279 -107.861 2977.11
-189.851 -107.861 2977.11
-190.099 -107.327 2962.38
-190.345 -106.798 2947.78
-189.515 -105.243 2904.85
-187.17 -102.264 2822.64
-183.063 -97.6577 2695.5
-177.627 -91.8644 2535.59
-171.7 -85.6917 2365.22
-167.491 -81.1985 2241.2
-164.91 -78.2671 2160.29
-163.972 -76.8794 2121.99
-164.24 -76.6078 2114.49
-164.806 -76.6078 2114.49
-165.371 -76.6078 2114.49
-165.936 -76.6078 2114.49
-166.502 -76.6078 2114.49
-167.067 -76.6078 2114.49
-167.633 -76.6078 2114.49
-168.198 -76.6078 2114.49
-168.763 -76.6078 2114.49
-169.329 -76.6078 2114.49
-169.894 -76.6078 2114.49
-170.459 -76.6078 2114.49
-171.025 -76.6078 2114.49
-171.59 -76.6078 2114.49
-172.155 -76.6078 2114.49
-172.721 -76.6078 2114.49
-173.286 -76.6078 2114.49
-173.852 -76.6078 2114.49
-174.417 -76.6078 2114.49
-174.982 -76.6078 2114.49
-175.548 -76.6078 2114.49
-176.113 -76.6078 2114.49
-176.678 -76.6078 2114.49
-177.244 -76.6078 2114.49
-177.809 -76.6078 2114.49
-178.375 -76.6078 2114.49
-178.94 -76.6078 2114.49
-179.505 -76.6078 2114.49
-180.071 -76.6078 2114.49
-180.993 -76.8794 2121.99
-181.922 -77.153 2129.54
-183.226 -77.7061 2144.8
-184.173 -77.9856 2152.52
-185.126 -78.2671 2160.29
-185.704 -78.2671 2160.29
-186.667 -78.5507 2168.12
-187.246 -78.5507 2168.12
-187.826 -78.5507 2168.12
-188.406 -78.5507 2168.12
-188.986 -78.5507 2168.12
-189.565 -78.5507 2168.12
-189.747 -78.2671 2160.29
-190.325 -78.2671 2160.29
-190.504 -77.9856 2152.52
-191.079 -77.9856 2152.52
-191.254 -77.7061 2144.8
-191.032 -77.153 2129.54
-191.206 -76.8794 2121.99
-191.378 -76.6078 2114.49
-191.943 -76.6078 2114.49
-192.509 -76.6078 2114.49
-193.074 -76.6078 2114.49
-193.64 -76.6078 2114.49
-194.205 -76.6078 2114.49
-194.77 -76.6078 2114.49
-195.336 -76.6078 2114.49
-195.901 -76.6078 2114.49
-196.466 -76.6078 2114.49
-197.032 -76.6078 2114.49
-198.014 -76.8794 2121.99
-199.004 -77.153 2129.54
-200 -77.4286 2137.14
-201.439 -77.9856 2152.52
-202.455 -78.2671 2160.29
-203.032 -78.2671 2160.29
-203.61 -78.2671 2160.29
-204.638 -78.5507 2168.12
-205.217 -78.5507 2168.12
-205.797 -78.5507 2168.12
-206.377 -78.5507 2168.12
-206.957 -78.5507 2168.12
51.6605 -79.4096 2208.12
51.0701 -79.4096 2208.12
50.4797 -79.4096 2208.12
49.8893 -79.4096 2208.12
49.2989 -79.4096 2208.12
48.7085 -79.4096 2208.12
48.1181 -79.4096 2208.12
47.5277 -79.4096 2208.12
46.9373 -79.4096 2208.12
45.8824 -79.1176 2200
45.2941 -79.1176 2200
44.7059 -79.1176 2200
44.1176 -79.1176 2200
43.5294 -79.1176 2200
42.9412 -79.1176 2200
42.3529 -79.1176 2200
41.7647 -79.1176 2200
41.1765 -79.1176 2200
40.5882 -79.1176 2200
40 -79.1176 2200
39.4118 -79.1176 2200
38.8235 -79.1176 2200
38.2353 -79.1176 2200
37.6471 -79.1176 2200
37.0588 -79.1176 2200
36.4706 -79.1176 2200
35.4579 -78.8278 2191.94
34.8718 -78.8278 2191.94
34.2857 -78.8278 2191.94
33.6996 -78.8278 2191.94
33.1136 -78.8278 2191.94
32.1168 -78.5401 2183.94
31.5328 -78.5401 2183.94
30.9489 -78.5401 2183.94
30.365 -78.5401 2183.94
29.781 -78.5401 2183.94
29.1971 -78.5401 2183.94
28.6131 -78.5401 2183.94
28.0292 -78.5401 2183.94
27.4453 -78.5401 2183.94
26.8613 -78.5401 2183.94
26.2774 -78.5401 2183.94
25.6934 -78.5401 2183.94
25.1095 -78.5401 2183.94
24.5255 -78.5401 2183.94
23.9416 -78.5401 2183.94
22.9818 -78.2545 2176
22.4 -78.2545 2176
21.8182 -78.2545 2176
21.2364 -78.2545 2176
20.6545 -78.2545 2176
20.0727 -78.2545 2176
19.4909 -78.2545 2176
18.9091 -78.2545 2176
18.3273 -78.2545 2176
17.7455 -78.2545 2176
17.1636 -78.2545 2176
16.5818 -78.2545 2176
16 -78.2545 2176
15.4182 -78.2545 2176
14.4928 -77.971 2168.12
13.913 -77.971 2168.12
13.3333 -77.971 2168.12
12.7536 -77.971 2168.12
12.1739 -77.971 2168.12
11.5942 -77.971 2168.12
11.0145 -77.971 2168.12
10.4348 -77.971 2168.12
9.85507 -77.971 2168.12
8.95307 -77.6895 2160.29
8.37545 -77.6895 2160.29
7.79783 -77.6895 2160.29
7.22022 -77.6895 2160.29
6.6426 -77.6895 2160.29
6.06498 -77.6895 2160.29
5.48736 -77.6895 2160.29
4.90975 -77.6895 2160.29
4.33213 -77.6895 2160.29
3.75451 -77.6895 2160.29
3.1769 -77.6895 2160.29
2.30216 -77.4101 2152.52
1.72662 -77.4101 2152.52
1.15108 -77.4101 2152.52
0.57554 -77.4101 2152.52
-0 -77.4101 2152.52
-0.57554 -77.4101 2152.52
-1.15108 -77.4101 2152.52
-1.72662 -77.4101 2152.52
-2.30216 -77.4101 2152.52
-3.15412 -77.1326 2144.8
-3.7276 -77.1326 2144.8
-4.30108 -77.1326 2144.8
-4.87455 -77.1326 2144.8
-5.44803 -77.1326 2144.8
-6.02151 -77.1326 2144.8
-6.59498 -77.1326 2144.8
-7.16846 -77.1326 2144.8
-7.74194 -77.1326 2144.8
-8.31541 -77.1326 2144.8
-8.88889 -77.1326 2144.8
-9.46237 -77.1326 2144.8
-10.0358 -77.1326 2144.8
-10.6093 -77.1326 2144.8
-11.1828 -77.1326 2144.8
-11.7563 -77.1326 2144.8
-12.3297 -77.1326 2144.8
-12.9032 -77.1326 2144.8
-13.4767 -77.1326 2144.8
-14.0502 -77.1326 2144.8
-14.8571 -76.8571 2137.14
-15.4286 -76.8571 2137.14
-16 -76.8571 2137.14
-16.7972 -76.5836 2129.54
-17.5887 -76.3121 2121.99
-18.156 -76.3121 2121.99
-18.9399 -76.0424 2114.49
-19.9298 -75.5088 2099.65
-20.9059 -74.9826 2085.02
-21.8685 -74.4637 2070.59
-22.6207 -74.2069 2063.45
-23.3677 -73.9519 2056.36
-23.7241 -74.2069 2063.45
-23.8889 -74.7222 2077.78
-24.0559 -75.2448 2092.31
-24.2254 -75.7746 2107.04
-24.3972 -76.3121 2121.99
-24.9645 -76.3121 2121.99
-25.3381 -76.5836 2129.54
-25.9075 -76.5836 2129.54
-26.6667 -76.3121 2121.99
-27.234 -76.3121 2121.99
-27.8014 -76.3121 2121.99
-28.3688 -76.3121 2121.99
-28.9362 -76.3121 2121.99
-29.5035 -76.3121 2121.99
-30.0709 -76.3121 2121.99
-30.6383 -76.3121 2121.99
-31.2057 -76.3121 2121.99
-31.773 -76.3121 2121.99
-32.3404 -76.3121 2121.99
-33.0742 -76.0424 2114.49
-33.6396 -76.0424 2114.49
-34.2049 -76.0424 2114.49
-34.7703 -76.0424 2114.49
-35.3357 -76.0424 2114.49
-35.9011 -76.0424 2114.49
-36.4664 -76.0424 2114.49
-37.0318 -76.0424 2114.49
-37.5972 -76.0424 2114.49
-38.1625 -76.0424 2114.49
-38.7279 -76.0424 2114.49
-39.2933 -76.0424 2114.49
-39.8587 -76.0424 2114.49
-40.424 -76.0424 2114.49
-41.1268 -75.7746 2107.04
-41.6901 -75.7746 2107.04
-42.2535 -75.7746 2107.04
-42.8169 -75.7746 2107.04
-43.3803 -75.7746 2107.04
-43.9437 -75.7746 2107.04
-44.507 -75.7746 2107.04
-45.0704 -75.7746 2107.04
-45.6338 -75.7746 2107.04
-46.1972 -75.7746 2107.04
-46.7606 -75.7746 2107.04
-47.4386 -75.5088 2099.65
-48 -75.5088 2099.65
-48.5614 -75.5088 2099.65
-49.1228 -75.5088 2099.65
-49.6842 -75.5088 2099.65
-50.2456 -75.5088 2099.65
-50.807 -75.5088 2099.65
-51.3684 -75.5088 2099.65
-51.9298 -75.5088 2099.65
-52.4912 -75.5088 2099.65
-53.0526 -75.5088 2099.65
-53.614 -75.5088 2099.65
-54.1754 -75.5088 2099.65
-54.7368 -75.5088 2099.65
-55.2982 -75.5088 2099.65
-55.8596 -75.5088 2099.65
-56.4211 -75.5088 2099.65
-56.9825 -75.5088 2099.65
-57.5439 -75.5088 2099.65
-58.1053 -75.5088 2099.65
-58.6667 -75.5088 2099.65
-59.2281 -75.5088 2099.65
-59.7895 -75.5088 2099.65
-60.3509 -75.5088 2099.65
-60.9123 -75.5088 2099.65
-61.4085 -75.7746 2107.04
-61.9718 -75.7746 2107.04
-62.5352 -75.7746 2107.04
-63.0986 -75.7746 2107.04
-63.662 -75.7746 2107.04
-64.2254 -75.7746 2107.04
-64.7887 -75.7746 2107.04
-65.3521 -75.7746 2107.04
-65.9155 -75.7746 2107.04
-66.4789 -75.7746 2107.04
-66.9965 -76.0424 2114.49
-67.5618 -76.0424 2114.49
-68.1272 -76.0424 2114.49
-68.6926 -76.0424 2114.49
-69.258 -76.0424 2114.49
-69.8233 -76.0424 2114.49
-70.3887 -76.0424 2114.49
-70.9541 -76.0424 2114.49
-71.5194 -76.0424 2114.49
-72.0848 -76.0424 2114.49
-72.6502 -76.0424 2114.49
-73.1915 -76.3121 2121.99
-73.7589 -76.3121 2121.99
-74.3262 -76.3121 2121.99
-74.8936 -76.3121 2121.99
-75.461 -76.3121 2121.99
-76.0284 -76.3121 2121.99
-76.5957 -76.3121 2121.99
-77.1631 -76.3121 2121.99
-77.7305 -76.3121 2121.99
-78.2918 -76.5836 2129.54
-78.8612 -76.5836 2129.54
-79.4306 -76.5836 2129.54
-80 -76.5836 2129.54
-80.5674 -76.3121 2121.99
-81.1307 -76.0424 2114.49
-81.6842 -75.5088 2099.65
-82.2069 -74.2069 2063.45
-82.7211 -73.1973 2035.37
-83.2323 -72.4579 2014.81
-83.7333 -71.7333 1994.67
-84.2525 -71.495 1988.04
-84.7682 -71.2583 1981.46
-85.298 -71.2583 1981.46
-85.8278 -71.2583 1981.46
-86.3787 -71.495 1988.04
-86.9565 -71.9732 2001.34
-87.5932 -72.9492 2028.47
-88.2192 -73.6986 2049.32
-88.8581 -74.4637 2070.59
-89.5105 -75.2448 2092.31
-90.1408 -75.7746 2107.04
-90.742 -76.0424 2114.49
-91.3475 -76.3121 2121.99
-91.9573 -76.5836 2129.54
-92.5714 -76.8571 2137.14
-93.19 -77.1326 2144.8
-93.7634 -77.1326 2144.8
-94.3369 -77.1326 2144.8
-94.9104 -77.1326 2144.8
-95.5396 -77.4101 2152.52
-96.1151 -77.4101 2152.52
-96.6906 -77.4101 2152.52
-97.2662 -77.4101 2152.52
-97.8417 -77.4101 2152.52
-98.4173 -77.4101 2152.52
-98.9928 -77.4101 2152.52
-99.5683 -77.4101 2152.52
-100.144 -77.4101 2152.52
-100.719 -77.4101 2152.52
-101.295 -77.4101 2152.52
-101.871 -77.4101 2152.52
-102.446 -77.4101 2152.52
-103.022 -77.4101 2152.52
-103.597 -77.4101 2152.52
-104.086 -77.1326 2144.8
-104.571 -76.8571 2137.14
-105.143 -76.8571 2137.14
-105.623 -76.5836 2129.54
-106.099 -76.3121 2121.99
-106.572 -76.0424 2114.49
-107.138 -76.0424 2114.49
-107.703 -76.0424 2114.49
-108.269 -76.0424 2114.49
-108.834 -76.0424 2114.49
-109.399 -76.0424 2114.49
-109.965 -76.0424 2114.49
-110.53 -76.0424 2114.49
-111.095 -76.0424 2114.49
-111.661 -76.0424 2114.49
-112.226 -76.0424 2114.49
-112.792 -76.0424 2114.49
-113.357 -76.0424 2114.49
-113.922 -76.0424 2114.49
-114.488 -76.0424 2114.49
-115.053 -76.0424 2114.49
-115.493 -75.7746 2107.04
-116.056 -75.7746 2107.04
-116.62 -75.7746 2107.04
-117.183 -75.7746 2107.04
-117.746 -75.7746 2107.04
-118.31 -75.7746 2107.04
-118.873 -75.7746 2107.04
-119.576 -76.0424 2114.49
-120.284 -76.3121 2121.99
-120.851 -76.3121 2121.99
-121.566 -76.5836 2129.54
-122.437 -77.1326 2144.8
-123.165 -77.4101 2152.52
-124.058 -77.971 2168.12
-124.8 -78.2545 2176
-125.547 -78.5401 2183.94
-126.131 -78.5401 2183.94
-126.715 -78.5401 2183.94
-127.473 -78.8278 2191.94
-128.773 -80 2224.54
-130.881 -82.4521 2292.72
-133.76 -86.08 2393.6
-137.143 -90.4202 2514.29
-140.351 -94.386 2624.56
-143.273 -97.8182 2720
-144.885 -99.1705 2757.6
-145.926 -99.6296 2770.37
-146.667 -99.6296 2770.37
-146.789 -98.7156 2744.95
-146.606 -97.3756 2707.69
-144.138 -92.7586 2579.31
-141.388 -87.8367 2442.45
-139.144 -83.7354 2328.4
-137.1 -80 2224.54
-135.827 -77.4101 2152.52
-135.603 -76.3121 2121.99
-135.972 -76.0424 2114.49
-136.537 -76.0424 2114.49
-137.102 -76.0424 2114.49
-137.668 -76.0424 2114.49
-138.233 -76.0424 2114.49
-138.799 -76.0424 2114.49
-139.364 -76.0424 2114.49
-139.929 -76.0424 2114.49
-140.495 -76.0424 2114.49
-141.06 -76.0424 2114.49
-141.625 -76.0424 2114.49
-142.191 -76.0424 2114.49
-142.535 -75.7746 2107.04
-143.099 -75.7746 2107.04
-143.662 -75.7746 2107.04
-144.452 -76.0424 2114.49
-145.018 -76.0424 2114.49
-145.583 -76.0424 2114.49
-146.148 -76.0424 2114.49
-146.714 -76.0424 2114.49
-147.279 -76.0424 2114.49
-147.845 -76.0424 2114.49
-148.652 -76.3121 2121.99
-150.469 -77.6895 2160.29
-153.985 -80.9023 2249.62
-159.36 -86.08 2393.6
-165.47 -91.9658 2557.26
-172.055 -98.2648 2732.42
-178.164 -103.961 2890.82
-181.386 -106.535 2962.38
-191.683 -106.535 2962.38
-189.758 -103.961 2890.82
-184.475 -98.2648 2732.42
-178.462 -91.9658 2557.26
-172.8 -86.08 2393.6
-167.82 -80.9023 2249.62
-164.91 -77.6895 2160.29
-163.972 -76.3121 2121.99
-164.24 -76.0424 2114.49
-164.806 -76.0424 2114.49
-165.371 -76.0424 2114.49
-165.936 -76.0424 2114.49
-166.502 -76.0424 2114.49
-167.067 -76.0424 2114.49
-167.633 -76.0424 2114.49
-168.198 -76.0424 2114.49
-168.763 -76.0424 2114.49
-169.329 -76.0424 2114.49
-169.894 -76.0424 2114.49
-170.459 -76.0424 2114.49
-171.025 -76.0424 2114.49
-171.59 -76.0424 2114.49
-172.155 -76.0424 2114.49
-172.721 -76.0424 2114.49
-173.286 -76.0424 2114.49
-173.521 -75.7746 2107.04
-174.085 -75.7746 2107.04
-174.982 -76.0424 2114.49
-175.548 -76.0424 2114.49
-176.113 -76.0424 2114.49
-176.678 -76.0424 2114.49
-177.244 -76.0424 2114.49
-177.809 -76.0424 2114.49
-178.375 -76.0424 2114.49
-178.94 -76.0424 2114.49
-179.505 -76.0424 2114.49
-180.426 -76.3121 2121.99
-182.079 -77.1326 2144.8
-183.768 -77.971 2168.12
-185.495 -78.8278 2191.94
-187.658 -80 2224.54
-189.064 -80.5993 2241.2
-190.075 -80.9023 2249.62
-191.094 -81.2075 2258.11
-191.698 -81.2075 2258.11
-192.302 -81.2075 2258.11
-192.906 -81.2075 2258.11
-193.509 -81.2075 2258.11
-194.113 -81.2075 2258.11
-195.152 -81.5152 2266.67
-194.887 -80.9023 2249.62
-195.056 -80.5993 2241.2
-194.37 -79.7037 2216.3
-193.7 -78.8278 2191.94
-193.043 -77.971 2168.12
-192 -76.8571 2137.14
-191.773 -76.3121 2121.99
-191.943 -76.0424 2114.49
-192.509 -76.0424 2114.49
-193.074 -76.0424 2114.49
-193.64 -76.0424 2114.49
-194.205 -76.0424 2114.49
-194.77 -76.0424 2114.49
-195.336 -76.0424 2114.49
-195.901 -76.0424 2114.49
-196.466 -76.0424 2114.49
-197.032 -76.0424 2114.49
-197.597 -76.0424 2114.49
-198.163 -76.0424 2114.49
-198.728 -76.0424 2114.49
-199.716 -76.3121 2121.99
-200.284 -76.3121 2121.99
-200.851 -76.3121 2121.99
-201.418 -76.3121 2121.99
-201.986 -76.3121 2121.99
-202.989 -76.5836 2129.54
-203.559 -76.5836 2129.54
-204.128 -76.5836 2129.54
-204.698 -76.5836 2129.54
51.6605 -78.8192 2208.12
51.0701 -78.8192 2208.12
50.4797 -78.8192 2208.12
49.8893 -78.8192 2208.12
49.2989 -78.8192 2208.12
48.7085 -78.8192 2208.12
48.1181 -78.8192 2208.12
47.5277 -78.8192 2208.12
46.4706 -78.5294 2200
45.8824 -78.5294 2200
45.2941 -78.5294 2200
44.7059 -78.5294 2200
44.1176 -78.5294 2200
43.5294 -78.5294 2200
42.9412 -78.5294 2200
42.3529 -78.5294 2200
41.7647 -78.5294 2200
41.1765 -78.5294 2200
40.5882 -78.5294 2200
40 -78.5294 2200
39.4118 -78.5294 2200
38.8235 -78.5294 2200
38.2353 -78.5294 2200
37.6471 -78.5294 2200
37.0588 -78.5294 2200
36.4706 -78.5294 2200
35.8824 -78.5294 2200
34.8718 -78.2418 2191.94
34.2857 -78.2418 2191.94
33.6996 -78.2418 2191.94
33.1136 -78.2418 2191.94
32.5275 -78.2418 2191.94
31.5328 -77.9562 2183.94
30.9489 -77.9562 2183.94
30.365 -77.9562 2183.94
29.781 -77.9562 2183.94
29.1971 -77.9562 2183.94
28.6131 -77.9562 2183.94
28.0292 -77.9562 2183.94
27.4453 -77.9562 2183.94
26.8613 -77.9562 2183.94
26.2774 -77.9562 2183.94
25.6934 -77.9562 2183.94
25.1095 -77.9562 2183.94
24.5255 -77.9562 2183.94
23.9416 -77.9562 2183.94
23.3577 -77.9562 2183.94
22.4 -77.6727 2176
21.8182 -77.6727 2176
21.2364 -77.6727 2176
20.6545 -77.6727 2176
20.0727 -77.6727 2176
19.4909 -77.6727 2176
18.9091 -77.6727 2176
18.3273 -77.6727 2176
17.7455 -77.6727 2176
17.1636 -77.6727 2176
16.5818 -77.6727 2176
16 -77.6727 2176
15.0725 -77.3913 2168.12
14.4928 -77.3913 2168.12
13.913 -77.3913 2168.12
13.3333 -77.3913 2168.12
12.7536 -77.3913 2168.12
12.1739 -77.3913 2168.12
11.5942 -77.3913 2168.12
11.0145 -77.3913 2168.12
10.4348 -77.3913 2168.12
9.53069 -77.1119 2160.29
8.95307 -77.1119 2160.29
8.37545 -77.1119 2160.29
7.79783 -77.1119 2160.29
7.22022 -77.1119 2160.29
6.6426 -77.1119 2160.29
6.06498 -77.1119 2160.29
5.48736 -77.1119 2160.29
4.90975 -77.1119 2160.29
4.33213 -77.1119 2160.29
3.45324 -76.8345 2152.52
2.8777 -76.8345 2152.52
2.30216 -76.8345 2152.52
1.72662 -76.8345 2152.52
1.15108 -76.8345 2152.52
0.57554 -76.8345 2152.52
-0 -76.8345 2152.52
-0.57554 -76.8345 2152.52
-1.15108 -76.8345 2152.52
-1.72662 -76.8345 2152.52
-2.58065 -76.5591 2144.8
-3.15412 -76.5591 2144.8
-3.7276 -76.5591 2144.8
-4.30108 -76.5591 2144.8
-4.87455 -76.5591 2144.8
-5.44803 -76.5591 2144.8
-6.02151 -76.5591 2144.8
-6.59498 -76.5591 2144.8
-7.16846 -76.5591 2144.8
-7.74194 -76.5591 2144.8
-8.31541 -76.5591 2144.8
-8.88889 -76.5591 2144.8
-9.46237 -76.5591 2144.8
-10.0358 -76.5591 2144.8
-10.6093 -76.5591 2144.8
-11.4286 -76.2857 2137.14
-12 -76.2857 2137.14
-12.5714 -76.2857 2137.14
-13.1429 -76.2857 2137.14
-13.7143 -76.2857 2137.14
-14.2857 -76.2857 2137.14
-14.8571 -76.2857 2137.14
-15.4286 -76.2857 2137.14
-16.2278 -76.0142 2129.54
-17.0213 -75.7447 2121.99
-17.8092 -75.477 2114.49
-18.5915 -75.2113 2107.04
-19.3684 -74.9474 2099.65
-20.3484 -74.4251 2085.02
-21.1111 -74.1667 2077.78
-22.069 -73.6552 2063.45
-22.8179 -73.4021 2056.36
-23.3677 -73.4021 2056.36
-23.7241 -73.6552 2063.45
-23.8889 -74.1667 2077.78
-24.0559 -74.6853 2092.31
-24.2254 -75.2113 2107.04
-24.3972 -75.7447 2121.99
-24.9645 -75.7447 2121.99
-25.3381 -76.0142 2129.54
-26.0993 -75.7447 2121.99
-26.6667 -75.7447 2121.99
-27.234 -75.7447 2121.99
-27.8014 -75.7447 2121.99
-28.3688 -75.7447 2121.99
-28.9362 -75.7447 2121.99
-29.5035 -75.7447 2121.99
-30.0709 -75.7447 2121.99
-30.6383 -75.7447 2121.99
-31.2057 -75.7447 2121.99
-31.9435 -75.477 2114.49
-32.5088 -75.477 2114.49
-33.0742 -75.477 2114.49
-33.6396 -75.477 2114.49
-34.2049 -75.477 2114.49
-34.7703 -75.477 2114.49
-35.3357 -75.477 2114.49
-35.9011 -75.477 2114.49
-36.4664 -75.477 2114.49
-37.0318 -75.477 2114.49
-37.5972 -75.477 2114.49
-38.1625 -75.477 2114.49
-38.7279 -75.477 2114.49
-39.2933 -75.477 2114.49
-39.8587 -75.477 2114.49
-40.5634 -75.2113 2107.04
-41.1268 -75.2113 2107.04
-41.6901 -75.2113 2107.04
-42.2535 -75.2113 2107.04
-42.8169 -75.2113 2107.04
-43.3803 -75.2113 2107.04
-43.9437 -75.2113 2107.04
-44.507 -75.2113 2107.04
-45.0704 -75.2113 2107.04
-45.6338 -75.2113 2107.04
-46.3158 -74.9474 2099.65
-46.8772 -74.9474 2099.65
-47.4386 -74.9474 2099.65
-48 -74.9474 2099.65
-48.5614 -74.9474 2099.65
-49.1228 -74.9474 2099.65
-49.6842 -74.9474 2099.65
-50.2456 -74.9474 2099.65
-50.807 -74.9474 2099.65
-51.3684 -74.9474 2099.65
-52.028 -74.6853 2092.31
-52.5874 -74.6853 2092.31
-53.1469 -74.6853 2092.31
-53.7063 -74.6853 2092.31
-54.2657 -74.6853 2092.31
-54.8252 -74.6853 2092.31
-55.3846 -74.6853 2092.31
-55.9441 -74.6853 2092.31
-56.5035 -74.6853 2092.31
-56.9825 -74.9474 2099.65
-57.5439 -74.9474 2099.65
-58.1053 -74.9474 2099.65
-58.6667 -74.9474 2099.65
-59.2281 -74.9474 2099.65
-59.7895 -74.9474 2099.65
-60.3509 -74.9474 2099.65
-60.9123 -74.9474 2099.65
-61.4085 -75.2113 2107.04
-61.9718 -75.2113 2107.04
-62.5352 -75.2113 2107.04
-63.0986 -75.2113 2107.04
-63.662 -75.2113 2107.04
-64.2254 -75.2113 2107.04
-64.7887 -75.2113 2107.04
-65.3521 -75.2113 2107.04
-65.9155 -75.2113 2107.04
-66.4789 -75.2113 2107.04
-66.9965 -75.477 2114.49
-67.5618 -75.477 2114.49
-68.1272 -75.477 2114.49
-68.6926 -75.477 2114.49
-69.258 -75.477 2114.49
-69.8233 -75.477 2114.49
-70.3887 -75.477 2114.49
-70.9541 -75.477 2114.49
-71.5194 -75.477 2114.49
-72.0848 -75.477 2114.49
-72.6502 -75.477 2114.49
-73.2155 -75.477 2114.49
-73.7809 -75.477 2114.49
-74.3262 -75.7447 2121.99
-74.8936 -75.7447 2121.99
-75.461 -75.7447 2121.99
-76.0284 -75.7447 2121.99
-76.5957 -75.7447 2121.99
-77.1631 -75.7447 2121.99
-77.7305 -75.7447 2121.99
-78.2918 -76.0142 2129.54
-78.8612 -76.0142 2129.54
-79.4306 -76.0142 2129.54
-80 -76.0142 2129.54
-80.5674 -75.7447 2121.99
-81.1307 -75.477 2114.49
-81.6783 -74.6853 2092.31
-82.2069 -73.6552 2063.45
-82.7211 -72.6531 2035.37
-83.2323 -71.9192 2014.81
-83.7333 -71.2 1994.67
-84.2525 -70.9635 1988.04
-84.7682 -70.7285 1981.46
-85.298 -70.7285 1981.46
-85.8278 -70.7285 1981.46
-86.3787 -70.9635 1988.04
-86.9333 -71.2 1994.67
-87.5421 -71.9192 2014.81
-88.1633 -72.6531 2035.37
-88.7671 -73.1507 2049.32
-89.4118 -73.91 2070.59
-90.0348 -74.4251 2085.02
-90.6667 -74.9474 2099.65
-91.3074 -75.477 2114.49
-91.9149 -75.7447 2121.99
-92.5714 -76.2857 2137.14
-93.19 -76.5591 2144.8
-93.7634 -76.5591 2144.8
-94.3369 -76.5591 2144.8
-94.9104 -76.5591 2144.8
-95.5396 -76.8345 2152.52
-96.1151 -76.8345 2152.52
-96.6906 -76.8345 2152.52
-97.2662 -76.8345 2152.52
-97.8417 -76.8345 2152.52
-98.4173 -76.8345 2152.52
-98.9928 -76.8345 2152.52
-99.5683 -76.8345 2152.52
-100.144 -76.8345 2152.52
-100.719 -76.8345 2152.52
-101.295 -76.8345 2152.52
-101.871 -76.8345 2152.52
-102.446 -76.8345 2152.52
-102.939 -76.5591 2144.8
-103.513 -76.5591 2144.8
-104 -76.2857 2137.14
-104.571 -76.2857 2137.14
-105.053 -76.0142 2129.54
-105.532 -75.7447 2121.99
-106.007 -75.477 2114.49
-106.572 -75.477 2114.49
-107.138 -75.477 2114.49
-107.703 -75.477 2114.49
-108.269 -75.477 2114.49
-108.834 -75.477 2114.49
-109.399 -75.477 2114.49
-109.965 -75.477 2114.49
-110.53 -75.477 2114.49
-111.095 -75.477 2114.49
-111.661 -75.477 2114.49
-112.226 -75.477 2114.49
-112.792 -75.477 2114.49
-113.357 -75.477 2114.49
-113.922 -75.477 2114.49
-114.488 -75.477 2114.49
-115.053 -75.477 2114.49
-115.493 -75.2113 2107.04
-116.056 -75.2113 2107.04
-116.62 -75.2113 2107.04
-117.183 -75.2113 2107.04
-117.746 -75.2113 2107.04
-118.31 -75.2113 2107.04
-118.873 -75.2113 2107.04
-119.437 -75.2113 2107.04
-120.141 -75.477 2114.49
-120.707 -75.477 2114.49
-121.418 -75.7447 2121.99
-122.135 -76.0142 2129.54
-122.857 -76.2857 2137.14
-123.584 -76.5591 2144.8
-124.317 -76.8345 2152.52
-125.054 -77.1119 2160.29
-125.797 -77.3913 2168.12
-126.545 -77.6727 2176
-127.299 -77.9562 2183.94
-128.593 -79.1111 2216.3
-130.303 -80.9091 2266.67
-132.706 -83.7647 2346.67
-135.061 -86.4777 2422.67
-137.573 -89.3724 2503.77
-139.742 -91.6738 2568.24
-140.952 -92.4675 2590.48
-141.645 -92.4675 2590.48
-142.338 -92.4675 2590.48
-142.759 -92.069 2579.31
-142.11 -90.1266 2524.89
-140.735 -87.1837 2442.45
-139.213 -84.0945 2355.91
-137.795 -81.2167 2275.29
-136.471 -78.5294 2200
-135.627 -76.5591 2144.8
-135.406 -75.477 2114.49
-135.972 -75.477 2114.49
-136.537 -75.477 2114.49
-137.102 -75.477 2114.49
-137.668 -75.477 2114.49
-138.233 -75.477 2114.49
-138.799 -75.477 2114.49
-139.364 -75.477 2114.49
-139.929 -75.477 2114.49
-140.495 -75.477 2114.49
-141.06 -75.477 2114.49
-141.625 -75.477 2114.49
-141.972 -75.2113 2107.04
-142.535 -75.2113 2107.04
-143.099 -75.2113 2107.04
-143.662 -75.2113 2107.04
-144.225 -75.2113 2107.04
-145.018 -75.477 2114.49
-145.583 -75.477 2114.49
-146.148 -75.477 2114.49
-146.714 -75.477 2114.49
-147.279 -75.477 2114.49
-147.606 -75.2113 2107.04
-148.652 -75.7447 2121.99
-150.469 -77.1119 2160.29
-154.264 -80.6038 2258.11
-159.36 -85.44 2393.6
-165.837 -91.6738 2568.24
-172.477 -97.9817 2744.95
-178.641 -103.689 2904.85
-181.891 -106.269 2977.11
-192.239 -106.269 2977.11
-190.291 -103.689 2904.85
-184.954 -97.9817 2744.95
-178.884 -91.6738 2568.24
-173.173 -85.7831 2403.21
-168.151 -80.6038 2258.11
-164.91 -77.1119 2160.29
-163.972 -75.7447 2121.99
-164.24 -75.477 2114.49
-164.806 -75.477 2114.49
-165.371 -75.477 2114.49
-165.936 -75.477 2114.49
-166.502 -75.477 2114.49
-167.067 -75.477 2114.49
-167.633 -75.477 2114.49
-168.198 -75.477 2114.49
-168.763 -75.477 2114.49
-169.329 -75.477 2114.49
-169.894 -75.477 2114.49
-170.459 -75.477 2114.49
-171.025 -75.477 2114.49
-171.59 -75.477 2114.49
-172.155 -75.477 2114.49
-172.721 -75.477 2114.49
-172.958 -75.2113 2107.04
-173.521 -75.2113 2107.04
-174.085 -75.2113 2107.04
-174.648 -75.2113 2107.04
-175.548 -75.477 2114.49
-176.113 -75.477 2114.49
-176.678 -75.477 2114.49
-177.244 -75.477 2114.49
-177.809 -75.477 2114.49
-178.375 -75.477 2114.49
-178.94 -75.477 2114.49
-179.505 -75.477 2114.49
-180.783 -76.0142 2129.54
-183.188 -77.3913 2168.12
-186.074 -79.1111 2216.3
-189.506 -81.2167 2275.29
-192.685 -83.1128 2328.4
-195.099 -84.4269 2365.22
-197.12 -85.44 2393.6
-197.76 -85.44 2393.6
-198.876 -85.7831 2403.21
-199.518 -85.7831 2403.21
-200.161 -85.7831 2403.21
-200.803 -85.7831 2403.21
-201.446 -85.7831 2403.21
-202.088 -85.7831 2403.21
-202.24 -85.44 2393.6
-201.905 -84.7619 2374.6
-200.156 -83.1128 2328.4
-197.576 -80.9091 2266.67
-195.556 -79.1111 2216.3
-193.623 -77.3913 2168.12
-192.171 -76.0142 2129.54
-191.943 -75.477 2114.49
-192.509 -75.477 2114.49
-193.074 -75.477 2114.49
-193.64 -75.477 2114.49
-194.205 -75.477 2114.49
-194.77 -75.477 2114.49
-195.336 -75.477 2114.49
-195.901 -75.477 2114.49
-196.466 -75.477 2114.49
-197.032 -75.477 2114.49
-197.597 -75.477 2114.49
-198.163 -75.477 2114.49
-198.728 -75.477 2114.49
-199.293 -75.477 2114.49
-199.859 -75.477 2114.49
-200.424 -75.477 2114.49
-200.989 -75.477 2114.49
-201.555 -75.477 2114.49
-202.12 -75.477 2114.49
-202.686 -75.477 2114.49
-203.251 -75.477 2114.49
-203.816 -75.477 2114.49
51.6605 -78.2288 2208.12
51.0701 -78.2288 2208.12
50.4797 -78.2288 2208.12
49.8893 -78.2288 2208.12
49.2989 -78.2288 2208.12
48.7085 -78.2288 2208.12
48.1181 -78.2288 2208.12
47.0588 -77.9412 2200
46.4706 -77.9412 2200
45.8824 -77.9412 2200
45.2941 -77.9412 2200
44.7059 -77.9412 2200
44.1176 -77.9412 2200
43.5294 -77.9412 2200
42.9412 -77.9412 2200
42.3529 -77.9412 2200
41.7647 -77.9412 2200
41.1765 -77.9412 2200
40.5882 -77.9412 2200
40 -77.9412 2200
39.4118 -77.9412 2200
38.8235 -77.9412 2200
38.2353 -77.9412 2200
37.6471 -77.9412 2200
37.0588 -77.9412 2200
36.4706 -77.9412 2200
35.8824 -77.9412 2200
34.8718 -77.6557 2191.94
34.2857 -77.6557 2191.94
33.6996 -77.6557 2191.94
33.1136 -77.6557 2191.94
32.5275 -77.6557 2191.94
31.9414 -77.6557 2191.94
30.9489 -77.3723 2183.94
30.365 -77.3723 2183.94
29.781 -77.3723 2183.94
29.1971 -77.3723 2183.94
28.6131 -77.3723 2183.94
28.0292 -77.3723 2183.94
27.4453 -77.3723 2183.94
26.8613 -77.3723 2183.94
26.2774 -77.3723 2183.94
25.6934 -77.3723 2183.94
25.1095 -77.3723 2183.94
24.5255 -77.3723 2183.94
23.9416 -77.3723 2183.94
23.3577 -77.3723 2183.94
22.4 -77.0909 2176
21.8182 -77.0909 2176
21.2364 -77.0909 2176
20.6545 -77.0909 2176
20.0727 -77.0909 2176
19.4909 -77.0909 2176
18.9091 -77.0909 2176
18.3273 -77.0909 2176
17.7455 -77.0909 2176
16.8116 -76.8116 2168.12
16.2319 -76.8116 2168.12
15.6522 -76.8116 2168.12
15.0725 -76.8116 2168.12
14.4928 -76.8116 2168.12
13.913 -76.8116 2168.12
13.3333 -76.8116 2168.12
12.7536 -76.8116 2168.12
12.1739 -76.8116 2168.12
11.5942 -76.8116 2168.12
11.0145 -76.8116 2168.12
10.1083 -76.5343 2160.29
9.53069 -76.5343 2160.29
8.95307 -76.5343 2160.29
8.37545 -76.5343 2160.29
7.79783 -76.5343 2160.29
7.22022 -76.5343 2160.29
6.6426 -76.5343 2160.29
6.06498 -76.5343 2160.29
5.48736 -76.5343 2160.29
4.90975 -76.5343 2160.29
4.02878 -76.259 2152.52
3.45324 -76.259 2152.52
2.8777 -76.259 2152.52
2.30216 -76.259 2152.52
1.72662 -76.259 2152.52
1.15108 -76.259 2152.52
0.57554 -76.259 2152.52
-0 -76.259 2152.52
-0.57554 -76.259 2152.52
-1.43369 -75.9857 2144.8
-2.00717 -75.9857 2144.8
-2.58065 -75.9857 2144.8
-3.15412 -75.9857 2144.8
-3.7276 -75.9857 2144.8
-4.30108 -75.9857 2144.8
-4.87455 -75.9857 2144.8
-5.44803 -75.9857 2144.8
-6.02151 -75.9857 2144.8
-6.59498 -75.9857 2144.8
-7.16846 -75.9857 2144.8
-7.74194 -75.9857 2144.8
-8.31541 -75.9857 2144.8
-8.88889 -75.9857 2144.8
-9.46237 -75.9857 2144.8
-10.2857 -75.7143 2137.14
-10.8571 -75.7143 2137.14
-11.4286 -75.7143 2137.14
-12 -75.7143 2137.14
-12.5714 -75.7143 2137.14
-13.1429 -75.7143 2137.14
-13.7143 -75.7143 2137.14
-14.2857 -75.7143 2137.14
-14.8571 -75.7143 2137.14
-15.4286 -75.7143 2137.14
-16.4539 -75.1773 2121.99
-17.2438 -74.9117 2114.49
-18.2456 -74.386 2099.65
-19.021 -74.1259 2092.31
-19.7909 -73.8676 2085.02
-20.7612 -73.3564 2070.59
-21.5172 -73.1034 2063.45
-22.268 -72.8522 2056.36
-23.0137 -72.6027 2049.32
-23.5616 -72.6027 2049.32
-23.7241 -73.1034 2063.45
-23.8889 -73.6111 2077.78
-24.0559 -74.1259 2092.31
-24.2254 -74.6479 2107.04
-24.3972 -75.1773 2121.99
-24.9645 -75.1773 2121.99
-25.5319 -75.1773 2121.99
-26.0993 -75.1773 2121.99
-26.6667 -75.1773 2121.99
-27.234 -75.1773 2121.99
-27.8014 -75.1773 2121.99
-28.3688 -75.1773 2121.99
-28.9362 -75.1773 2121.99
-29.5035 -75.1773 2121.99
