-92.962 60.1519 1514.94
-93.3671 60.1519 1514.94
-93.8071 60.3046 1518.78
-94.2132 60.3046 1518.78
-94.6193 60.3046 1518.78
-95.0254 60.3046 1518.78
-95.4315 60.3046 1518.78
-95.8376 60.3046 1518.78
-96.2437 60.3046 1518.78
-96.6497 60.3046 1518.78
-97.0558 60.3046 1518.78
-97.5064 60.458 1522.65
-97.9592 60.6122 1526.53
-98.3673 60.6122 1526.53
-98.7755 60.6122 1526.53
-99.1837 60.6122 1526.53
-99.5918 60.6122 1526.53
-100.051 60.7673 1530.43
-100.46 60.7673 1530.43
-100.87 60.7673 1530.43
-101.279 60.7673 1530.43
-101.744 60.9231 1534.36
-102.211 61.0797 1538.3
-102.622 61.0797 1538.3
-103.033 61.0797 1538.3
-103.445 61.0797 1538.3
-104.23 62.0366 1562.4
-104.777 62.3622 1570.6
-105.197 62.3622 1570.6
-105.617 62.3622 1570.6
-106.037 62.3622 1570.6
-106.457 62.3622 1570.6
-106.947 62.5263 1574.74
-107.368 62.5263 1574.74
-107.789 62.5263 1574.74
-108.285 62.6913 1578.89
-110.222 66 1662.22
-110.752 66.1838 1666.85
-111.198 66.1838 1666.85
-111.643 66.1838 1666.85
-111.736 65.4545 1648.48
-110.576 62.199 1566.49
-110.753 61.7143 1554.29
-111.169 61.7143 1554.29
-111.584 61.7143 1554.29
-111.917 61.5544 1550.26
-112.332 61.5544 1550.26
-112.746 61.5544 1550.26
-113.161 61.5544 1550.26
-113.575 61.5544 1550.26
-113.902 61.3953 1546.25
-114.315 61.3953 1546.25
-114.729 61.3953 1546.25
-115.142 61.3953 1546.25
-115.556 61.3953 1546.25
-115.969 61.3953 1546.25
-116.382 61.3953 1546.25
-116.796 61.3953 1546.25
-117.209 61.3953 1546.25
-117.623 61.3953 1546.25
-118.036 61.3953 1546.25
-118.45 61.3953 1546.25
-118.863 61.3953 1546.25
-119.276 61.3953 1546.25
-119.69 61.3953 1546.25
-120.103 61.3953 1546.25
-120.517 61.3953 1546.25
-121.036 61.5544 1550.26
-121.451 61.5544 1550.26
-121.865 61.5544 1550.26
-122.28 61.5544 1550.26
-122.694 61.5544 1550.26
-123.109 61.5544 1550.26
-123.523 61.5544 1550.26
-123.938 61.5544 1550.26
-124.238 61.3953 1546.25
-124.536 61.2371 1542.27
-125.065 61.3953 1546.25
-125.478 61.3953 1546.25
-125.891 61.3953 1546.25
-126.305 61.3953 1546.25
-126.718 61.3953 1546.25
-127.132 61.3953 1546.25
-127.545 61.3953 1546.25
-127.959 61.3953 1546.25
-128.372 61.3953 1546.25
-128.786 61.3953 1546.25
-129.199 61.3953 1546.25
-129.612 61.3953 1546.25
-130.026 61.3953 1546.25
-130.439 61.3953 1546.25
-130.722 61.2371 1542.27
-131.266 61.3953 1546.25
-131.68 61.3953 1546.25
-132.093 61.3953 1546.25
-132.506 61.3953 1546.25
-132.92 61.3953 1546.25
-133.472 61.5544 1550.26
-133.886 61.5544 1550.26
-134.301 61.5544 1550.26
-134.715 61.5544 1550.26
-135.13 61.5544 1550.26
-135.544 61.5544 1550.26
-135.959 61.5544 1550.26
-136.373 61.5544 1550.26
-136.641 61.3953 1546.25
-137.054 61.3953 1546.25
-137.468 61.3953 1546.25
-137.881 61.3953 1546.25
-138.295 61.3953 1546.25
-138.708 61.3953 1546.25
-139.739 62.0366 1562.4
-140.314 62.199 1566.49
-140.733 62.199 1566.49
-141.152 62.199 1566.49
-141.571 62.199 1566.49
-141.99 62.199 1566.49
-142.408 62.199 1566.49
-142.827 62.199 1566.49
-143.246 62.199 1566.49
-143.499 62.0366 1562.4
-143.75 61.875 1558.33
-144.167 61.875 1558.33
-144.583 61.875 1558.33
-145 61.875 1558.33
-145.247 61.7143 1554.29
-145.662 61.7143 1554.29
-146.078 61.7143 1554.29
-146.494 61.7143 1554.29
-146.909 61.7143 1554.29
-147.325 61.7143 1554.29
-147.74 61.7143 1554.29
-148.156 61.7143 1554.29
-148.571 61.7143 1554.29
-148.987 61.7143 1554.29
-149.223 61.5544 1550.26
-149.637 61.5544 1550.26
-150.052 61.5544 1550.26
-150.466 61.5544 1550.26
-150.881 61.5544 1550.26
-151.295 61.5544 1550.26
-151.71 61.5544 1550.26
-152.124 61.5544 1550.26
-152.539 61.5544 1550.26
-152.953 61.5544 1550.26
-153.368 61.5544 1550.26
-153.782 61.5544 1550.26
-154.197 61.5544 1550.26
-154.611 61.5544 1550.26
-155.026 61.5544 1550.26
-155.44 61.5544 1550.26
-155.855 61.5544 1550.26
-156.269 61.5544 1550.26
-156.684 61.5544 1550.26
-157.098 61.5544 1550.26
-157.513 61.5544 1550.26
-157.927 61.5544 1550.26
-158.342 61.5544 1550.26
-158.756 61.5544 1550.26
-159.171 61.5544 1550.26
-159.585 61.5544 1550.26
-160 61.5544 1550.26
-160.415 61.5544 1550.26
-160.829 61.5544 1550.26
-161.244 61.5544 1550.26
-161.447 61.3953 1546.25
-159.798 59.8489 1507.3
-160.202 59.8489 1507.3
-160.605 59.8489 1507.3
-161.008 59.8489 1507.3
-161.411 59.8489 1507.3
-161.814 59.8489 1507.3
-162.217 59.8489 1507.3
-162.62 59.8489 1507.3
-163.023 59.8489 1507.3
-163.426 59.8489 1507.3
-163.829 59.8489 1507.3
-164.444 60 1511.11
-164.848 60 1511.11
-165.253 60 1511.11
-165.657 60 1511.11
-166.061 60 1511.11
-166.465 60 1511.11
-166.869 60 1511.11
-167.273 60 1511.11
-167.677 60 1511.11
-168.081 60 1511.11
-168.485 60 1511.11
-168.889 60 1511.11
-169.293 60 1511.11
6.36145 57.6386 1441.93
5.9759 57.6386 1441.93
5.59036 57.6386 1441.93
5.41063 57.7778 1445.41
5.02415 57.7778 1445.41
4.63768 57.7778 1445.41
4.25121 57.7778 1445.41
3.86473 57.7778 1445.41
3.47826 57.7778 1445.41
3.09179 57.7778 1445.41
2.70531 57.7778 1445.41
2.31884 57.7778 1445.41
1.93237 57.7778 1445.41
1.74334 57.9177 1448.91
1.35593 57.9177 1448.91
0.968523 57.9177 1448.91
0.581114 57.9177 1448.91
0.38835 58.0583 1452.43
0.194647 58.1995 1455.96
-0.194647 58.1995 1455.96
-0.583942 58.1995 1455.96
-0.973236 58.1995 1455.96
-1.36253 58.1995 1455.96
-1.56098 58.3415 1459.51
-1.95122 58.3415 1459.51
-2.34146 58.3415 1459.51
-2.73171 58.3415 1459.51
-2.7451 58.6275 1466.67
-3.13725 58.6275 1466.67
-3.52941 58.6275 1466.67
-3.92157 58.6275 1466.67
-4.12776 58.7715 1470.27
-4.14815 59.0617 1477.53
-4.54321 59.0617 1477.53
-4.93827 59.0617 1477.53
-5.33333 59.0617 1477.53
-5.54455 59.2079 1481.19
-5.2 59.8 1496
-5.41353 59.9499 1499.75
-6 59.8 1496
-6.4 59.8 1496
-6.8 59.8 1496
-6.83417 60.1005 1503.52
-7.23618 60.1005 1503.52
-7.63819 60.1005 1503.52
-8.0402 60.1005 1503.52
-8.44221 60.1005 1503.52
-9.02256 59.9499 1499.75
-9.42356 59.9499 1499.75
-9.82456 59.9499 1499.75
-10.2256 59.9499 1499.75
-10.6266 59.9499 1499.75
-10.8543 60.1005 1503.52
-11.2563 60.1005 1503.52
-11.6583 60.1005 1503.52
-12.0603 60.1005 1503.52
-12.4623 60.1005 1503.52
-12.8643 60.1005 1503.52
-13.2663 60.1005 1503.52
-13.6683 60.1005 1503.52
-14.0704 60.1005 1503.52
-14.4724 60.1005 1503.52
-14.7103 60.2519 1507.3
-15.1134 60.2519 1507.3
-15.5164 60.2519 1507.3
-15.9194 60.2519 1507.3
-16.3224 60.2519 1507.3
-16.7254 60.2519 1507.3
-17.1285 60.2519 1507.3
-17.5315 60.2519 1507.3
-17.9345 60.2519 1507.3
-18.3375 60.2519 1507.3
-18.8945 60.1005 1503.52
-19.4486 59.9499 1499.75
-19.8496 59.9499 1499.75
-20.2506 59.9499 1499.75
-20.6516 59.9499 1499.75
-21.2 59.8 1496
-21.6 59.8 1496
-22 59.8 1496
-22.4 59.8 1496
-22.9426 59.6509 1492.27
-23.3416 59.6509 1492.27
-23.7406 59.6509 1492.27
-24.1397 59.6509 1492.27
-24.5387 59.6509 1492.27
-25.0746 59.5025 1488.56
-25.4726 59.5025 1488.56
-25.8706 59.5025 1488.56
-26.2687 59.5025 1488.56
-26.6667 59.5025 1488.56
-27.196 59.3548 1484.86
-27.5931 59.3548 1484.86
-27.9901 59.3548 1484.86
-28.3871 59.3548 1484.86
-28.7841 59.3548 1484.86
-29.1811 59.3548 1484.86
-29.5782 59.3548 1484.86
-29.9752 59.3548 1484.86
-30.3722 59.3548 1484.86
-30.7692 59.3548 1484.86
-31.1663 59.3548 1484.86
-31.5633 59.3548 1484.86
-31.9603 59.3548 1484.86
-32.3573 59.3548 1484.86
-32.7543 59.3548 1484.86
-33.1514 59.3548 1484.86
-33.5484 59.3548 1484.86
-33.9454 59.3548 1484.86
-34.3424 59.3548 1484.86
-34.7395 59.3548 1484.86
-35.2475 59.2079 1481.19
-35.6436 59.2079 1481.19
-36.0396 59.2079 1481.19
-36.4356 59.2079 1481.19
-36.8317 59.2079 1481.19
-37.2277 59.2079 1481.19
-37.5186 59.3548 1484.86
-37.9156 59.3548 1484.86
-38.3127 59.3548 1484.86
-38.7097 59.3548 1484.86
-39.1067 59.3548 1484.86
-39.5037 59.3548 1484.86
-39.9007 59.3548 1484.86
-40.2978 59.3548 1484.86
-40.6948 59.3548 1484.86
-41.0918 59.3548 1484.86
-41.4888 59.3548 1484.86
-41.8859 59.3548 1484.86
-42.2829 59.3548 1484.86
-42.6799 59.3548 1484.86
-43.0769 59.3548 1484.86
-43.4739 59.3548 1484.86
-43.7811 59.5025 1488.56
-44.1791 59.5025 1488.56
-44.5771 59.5025 1488.56
-44.9751 59.5025 1488.56
-45.3731 59.5025 1488.56
-45.6858 59.6509 1492.27
-46.0848 59.6509 1492.27
-46.4838 59.6509 1492.27
-46.8828 59.6509 1492.27
-47.2 59.8 1496
-47.6 59.8 1496
-48 59.8 1496
-48.4 59.8 1496
-48.7218 59.9499 1499.75
-49.1228 59.9499 1499.75
-49.4472 60.1005 1503.52
-49.8492 60.1005 1503.52
-50.2513 60.1005 1503.52
-50.6533 60.1005 1503.52
-50.9824 60.2519 1507.3
-51.3131 60.404 1511.11
-51.7172 60.404 1511.11
-52.1212 60.404 1511.11
-52.5253 60.404 1511.11
-52.7919 60.7107 1518.78
-53.1298 60.8651 1522.65
-53.5369 60.8651 1522.65
-53.944 60.8651 1522.65
-54.3511 60.8651 1522.65
-54.6292 61.1765 1530.43
-55.0384 61.1765 1530.43
-55.4476 61.1765 1530.43
-55.8568 61.1765 1530.43
-56.2051 61.3333 1534.36
-56.6154 61.3333 1534.36
-57.0256 61.3333 1534.36
-57.4359 61.3333 1534.36
-57.8462 61.3333 1534.36
-58.2564 61.3333 1534.36
-58.6667 61.3333 1534.36
-59.0769 61.3333 1534.36
-59.4872 61.3333 1534.36
-59.8974 61.3333 1534.36
-60.3077 61.3333 1534.36
-60.6684 61.491 1538.3
-61.0797 61.491 1538.3
-61.491 61.491 1538.3
-61.9023 61.491 1538.3
-62.3136 61.491 1538.3
-62.7249 61.491 1538.3
-63.1362 61.491 1538.3
-63.5476 61.491 1538.3
-63.9175 61.6495 1542.27
-64.3299 61.6495 1542.27
-64.7423 61.6495 1542.27
-65.1546 61.6495 1542.27
-65.567 61.6495 1542.27
-65.9794 61.6495 1542.27
-66.3918 61.6495 1542.27
-66.838 61.491 1538.3
-67.2165 61.6495 1542.27
-67.6607 61.491 1538.3
-68.072 61.491 1538.3
-68.4833 61.491 1538.3
-68.9231 61.3333 1534.36
-69.3333 61.3333 1534.36
-69.7436 61.3333 1534.36
-70.1538 61.3333 1534.36
-70.5882 61.1765 1530.43
-71.0204 61.0204 1526.53
-71.4286 61.0204 1526.53
-71.8367 61.0204 1526.53
-72.2449 61.0204 1526.53
-72.6531 61.0204 1526.53
-73.0612 61.0204 1526.53
-73.4694 61.0204 1526.53
-73.8776 61.0204 1526.53
-74.2857 61.0204 1526.53
-74.7074 60.8651 1522.65
-75.1145 60.8651 1522.65
-75.533 60.7107 1518.78
-75.9391 60.7107 1518.78
-76.3359 60.8651 1522.65
-76.7513 60.7107 1518.78
-77.1574 60.7107 1518.78
-77.5635 60.7107 1518.78
-77.9695 60.7107 1518.78
-78.3756 60.7107 1518.78
-78.7848 60.557 1514.94
-79.1899 60.557 1514.94
-79.5949 60.557 1514.94
-80 60.557 1514.94
-80.4051 60.557 1514.94
-80.8101 60.557 1514.94
-81.2152 60.557 1514.94
-81.6203 60.557 1514.94
-82.0253 60.557 1514.94
-82.4304 60.557 1514.94
-82.8283 60.404 1511.11
-83.2323 60.404 1511.11
-83.6364 60.404 1511.11
-84.0404 60.404 1511.11
-84.4444 60.404 1511.11
-84.8485 60.404 1511.11
-85.2525 60.404 1511.11
-85.6566 60.404 1511.11
-86.0606 60.404 1511.11
-86.4646 60.404 1511.11
-86.8687 60.404 1511.11
-87.2727 60.404 1511.11
-87.6962 60.557 1514.94
-88.1013 60.557 1514.94
-88.5063 60.557 1514.94
-88.9114 60.557 1514.94
-89.3165 60.557 1514.94
-89.7215 60.557 1514.94
-90.1266 60.557 1514.94
-90.5316 60.557 1514.94
-90.9367 60.557 1514.94
-91.3418 60.557 1514.94
-91.7468 60.557 1514.94
-92.1519 60.557 1514.94
-92.557 60.557 1514.94
-92.962 60.557 1514.94
-93.3671 60.557 1514.94
-93.8071 60.7107 1518.78
-94.2132 60.7107 1518.78
-94.6193 60.7107 1518.78
-95.0254 60.7107 1518.78
-95.4315 60.7107 1518.78
-95.8376 60.7107 1518.78
-96.2437 60.7107 1518.78
-96.6497 60.7107 1518.78
-97.0558 60.7107 1518.78
-97.5064 60.8651 1522.65
-97.9135 60.8651 1522.65
-98.3206 60.8651 1522.65
-98.7755 61.0204 1526.53
-99.1349 60.8651 1522.65
-99.5918 61.0204 1526.53
-100.051 61.1765 1530.43
-100.46 61.1765 1530.43
-100.87 61.1765 1530.43
-101.279 61.1765 1530.43
-101.744 61.3333 1534.36
-102.211 61.491 1538.3
-102.622 61.491 1538.3
-103.033 61.491 1538.3
-103.505 61.6495 1542.27
-104.23 62.4543 1562.4
-104.712 62.6178 1566.49
-105.131 62.6178 1566.49
-105.55 62.6178 1566.49
-105.969 62.6178 1566.49
-106.457 62.7822 1570.6
-106.877 62.7822 1570.6
-107.297 62.7822 1570.6
-107.717 62.7822 1570.6
-108.211 62.9474 1574.74
-110.222 66.4444 1662.22
-110.752 66.6295 1666.85
-111.198 66.6295 1666.85
-111.643 66.6295 1666.85
-111.736 65.8953 1648.48
-110.576 62.6178 1566.49
-110.753 62.1299 1554.29
-111.169 62.1299 1554.29
-111.584 62.1299 1554.29
-111.917 61.9689 1550.26
-112.332 61.9689 1550.26
-112.746 61.9689 1550.26
-113.161 61.9689 1550.26
-113.575 61.9689 1550.26
-113.902 61.8088 1546.25
-114.315 61.8088 1546.25
-114.729 61.8088 1546.25
-115.142 61.8088 1546.25
-115.556 61.8088 1546.25
-115.969 61.8088 1546.25
-116.382 61.8088 1546.25
-116.796 61.8088 1546.25
-117.209 61.8088 1546.25
-117.623 61.8088 1546.25
-118.036 61.8088 1546.25
-118.45 61.8088 1546.25
-118.863 61.8088 1546.25
-119.276 61.8088 1546.25
-119.69 61.8088 1546.25
-120.103 61.8088 1546.25
-120.517 61.8088 1546.25
-121.036 61.9689 1550.26
-121.451 61.9689 1550.26
-121.865 61.9689 1550.26
-122.171 61.8088 1546.25
-122.694 61.9689 1550.26
-123.109 61.9689 1550.26
-123.523 61.9689 1550.26
-123.938 61.9689 1550.26
-124.238 61.8088 1546.25
-124.651 61.8088 1546.25
-125.065 61.8088 1546.25
-125.478 61.8088 1546.25
-125.891 61.8088 1546.25
-126.305 61.8088 1546.25
-126.718 61.8088 1546.25
-127.132 61.8088 1546.25
-127.545 61.8088 1546.25
-127.959 61.8088 1546.25
-128.372 61.8088 1546.25
-128.786 61.8088 1546.25
-129.199 61.8088 1546.25
-129.612 61.8088 1546.25
-130.026 61.8088 1546.25
-130.439 61.8088 1546.25
-130.853 61.8088 1546.25
-131.266 61.8088 1546.25
-131.68 61.8088 1546.25
-132.093 61.8088 1546.25
-132.506 61.8088 1546.25
-132.92 61.8088 1546.25
-133.472 61.9689 1550.26
-133.747 61.8088 1546.25
-134.301 61.9689 1550.26
-134.715 61.9689 1550.26
-135.13 61.9689 1550.26
-135.544 61.9689 1550.26
-135.814 61.8088 1546.25
-136.227 61.8088 1546.25
-136.641 61.8088 1546.25
-137.054 61.8088 1546.25
-137.468 61.8088 1546.25
-137.881 61.8088 1546.25
-138.295 61.8088 1546.25
-138.708 61.8088 1546.25
-139.739 62.4543 1562.4
-140.314 62.6178 1566.49
-140.733 62.6178 1566.49
-141.152 62.6178 1566.49
-141.41 62.4543 1562.4
-141.828 62.4543 1562.4
-142.245 62.4543 1562.4
-142.663 62.4543 1562.4
-143.081 62.4543 1562.4
-143.499 62.4543 1562.4
-143.75 62.2917 1558.33
-144.167 62.2917 1558.33
-144.583 62.2917 1558.33
-145 62.2917 1558.33
-145.417 62.2917 1558.33
-145.662 62.1299 1554.29
-146.078 62.1299 1554.29
-146.494 62.1299 1554.29
-146.909 62.1299 1554.29
-147.325 62.1299 1554.29
-147.74 62.1299 1554.29
-148.156 62.1299 1554.29
-148.571 62.1299 1554.29
-148.987 62.1299 1554.29
-149.223 61.9689 1550.26
-149.637 61.9689 1550.26
-150.052 61.9689 1550.26
-150.466 61.9689 1550.26
-150.881 61.9689 1550.26
-151.295 61.9689 1550.26
-151.71 61.9689 1550.26
-152.124 61.9689 1550.26
-152.539 61.9689 1550.26
-152.953 61.9689 1550.26
-153.368 61.9689 1550.26
-153.782 61.9689 1550.26
-154.197 61.9689 1550.26
-154.611 61.9689 1550.26
-155.026 61.9689 1550.26
-155.44 61.9689 1550.26
-155.855 61.9689 1550.26
-156.269 61.9689 1550.26
-156.684 61.9689 1550.26
-157.098 61.9689 1550.26
-157.513 61.9689 1550.26
-157.927 61.9689 1550.26
-158.342 61.9689 1550.26
-158.756 61.9689 1550.26
-159.171 61.9689 1550.26
-159.585 61.9689 1550.26
-160 61.9689 1550.26
-160.415 61.9689 1550.26
-160.829 61.9689 1550.26
-161.244 61.9689 1550.26
-161.237 61.6495 1542.27
-160 60.404 1511.11
-160.202 60.2519 1507.3
-160.605 60.2519 1507.3
-161.008 60.2519 1507.3
-161.411 60.2519 1507.3
-161.814 60.2519 1507.3
-162.217 60.2519 1507.3
-162.62 60.2519 1507.3
-163.023 60.2519 1507.3
-163.426 60.2519 1507.3
-163.829 60.2519 1507.3
-164.444 60.404 1511.11
-164.848 60.404 1511.11
-165.253 60.404 1511.11
-165.657 60.404 1511.11
-166.061 60.404 1511.11
-166.465 60.404 1511.11
-166.869 60.404 1511.11
-167.273 60.404 1511.11
-167.677 60.404 1511.11
-168.081 60.404 1511.11
-168.485 60.404 1511.11
-168.889 60.404 1511.11
-169.293 60.404 1511.11
6.36145 58.0241 1441.93
5.9759 58.0241 1441.93
5.59036 58.0241 1441.93
5.41063 58.1643 1445.41
5.02415 58.1643 1445.41
4.63768 58.1643 1445.41
4.25121 58.1643 1445.41
3.86473 58.1643 1445.41
3.47826 58.1643 1445.41
3.09179 58.1643 1445.41
2.70531 58.1643 1445.41
2.31884 58.1643 1445.41
1.93237 58.1643 1445.41
1.74334 58.3051 1448.91
1.35593 58.3051 1448.91
0.968523 58.3051 1448.91
0.581114 58.3051 1448.91
0.583942 58.5888 1455.96
0.194647 58.5888 1455.96
-0.194647 58.5888 1455.96
-0.583942 58.5888 1455.96
-0.973236 58.5888 1455.96
-1.36253 58.5888 1455.96
-1.56098 58.7317 1459.51
-1.95122 58.7317 1459.51
-2.34146 58.7317 1459.51
-2.73171 58.7317 1459.51
-2.7451 59.0196 1466.67
-3.13725 59.0196 1466.67
-3.52941 59.0196 1466.67
-3.92157 59.0196 1466.67
-4.31373 59.0196 1466.67
-4.33498 59.3103 1473.89
-4.54321 59.4568 1477.53
-4.93827 59.4568 1477.53
-5.33333 59.4568 1477.53
-5.7284 59.4568 1477.53
-5.57214 59.9005 1488.56
-5.78554 60.0499 1492.27
-6.18454 60.0499 1492.27
-6.58354 60.0499 1492.27
-6.98254 60.0499 1492.27
-7.38155 60.0499 1492.27
-7.78055 60.0499 1492.27
-8.17955 60.0499 1492.27
-8.57855 60.0499 1492.27
-8.97756 60.0499 1492.27
-9.2 60.2 1496
-9.6 60.2 1496
-10 60.2 1496
-10.4 60.2 1496
-10.8 60.2 1496
-11.2 60.2 1496
-11.6 60.2 1496
-12 60.2 1496
-12.4 60.2 1496
-12.8 60.2 1496
-13.2 60.2 1496
-13.6 60.2 1496
-14 60.2 1496
-14.4 60.2 1496
-14.8 60.2 1496
-15.0376 60.3509 1499.75
-15.4386 60.3509 1499.75
-15.8396 60.3509 1499.75
-16.2406 60.3509 1499.75
-16.6416 60.3509 1499.75
-17.0426 60.3509 1499.75
-17.4436 60.3509 1499.75
-17.8446 60.3509 1499.75
-18.2456 60.3509 1499.75
-18.6466 60.3509 1499.75
-19.0476 60.3509 1499.75
-19.4486 60.3509 1499.75
-19.8496 60.3509 1499.75
-20.2506 60.3509 1499.75
-20.8 60.2 1496
-21.2 60.2 1496
-21.6 60.2 1496
-22 60.2 1496
-22.4 60.2 1496
-22.9426 60.0499 1492.27
-23.3416 60.0499 1492.27
-23.7406 60.0499 1492.27
-24.1397 60.0499 1492.27
-24.5387 60.0499 1492.27
-25.0746 59.9005 1488.56
-25.4726 59.9005 1488.56
-25.8706 59.9005 1488.56
-26.2687 59.9005 1488.56
-26.6667 59.9005 1488.56
-27.196 59.7519 1484.86
-27.5931 59.7519 1484.86
-27.9901 59.7519 1484.86
-28.3871 59.7519 1484.86
-28.7841 59.7519 1484.86
-29.1811 59.7519 1484.86
-29.5782 59.7519 1484.86
-29.9752 59.7519 1484.86
-30.3722 59.7519 1484.86
-30.7692 59.7519 1484.86
-31.1663 59.7519 1484.86
-31.5633 59.7519 1484.86
-31.9603 59.7519 1484.86
-32.3573 59.7519 1484.86
-32.7543 59.7519 1484.86
-33.1514 59.7519 1484.86
-33.5484 59.7519 1484.86
-33.9454 59.7519 1484.86
-34.3424 59.7519 1484.86
-34.7395 59.7519 1484.86
-35.2475 59.604 1481.19
-35.6436 59.604 1481.19
-35.9305 59.7519 1484.86
-36.4356 59.604 1481.19
-36.8317 59.604 1481.19
-37.2277 59.604 1481.19
-37.6238 59.604 1481.19
-37.9156 59.7519 1484.86
-38.3127 59.7519 1484.86
-38.7097 59.7519 1484.86
-39.1067 59.7519 1484.86
-39.5037 59.7519 1484.86
-39.9007 59.7519 1484.86
-40.2978 59.7519 1484.86
-40.6948 59.7519 1484.86
-41.0918 59.7519 1484.86
-41.4888 59.7519 1484.86
-41.8859 59.7519 1484.86
-42.2829 59.7519 1484.86
-42.6799 59.7519 1484.86
-43.0769 59.7519 1484.86
-43.4739 59.7519 1484.86
-43.7811 59.9005 1488.56
-44.1791 59.9005 1488.56
-44.5771 59.9005 1488.56
-44.9751 59.9005 1488.56
-45.3731 59.9005 1488.56
-45.6858 60.0499 1492.27
-46.0848 60.0499 1492.27
-46.4838 60.0499 1492.27
-46.8828 60.0499 1492.27
-47.2 60.2 1496
-47.6 60.2 1496
-48 60.2 1496
-48.4 60.2 1496
-48.8 60.2 1496
-49.0452 60.5025 1503.52
-49.4472 60.5025 1503.52
-49.8492 60.5025 1503.52
-50.2513 60.5025 1503.52
-50.6533 60.5025 1503.52
-50.9824 60.6549 1507.3
-51.3131 60.8081 1511.11
-51.7172 60.8081 1511.11
-52.1212 60.8081 1511.11
-52.5253 60.8081 1511.11
-52.7919 61.1168 1518.78
-53.1298 61.2723 1522.65
-53.5369 61.2723 1522.65
-53.944 61.2723 1522.65
-54.3511 61.2723 1522.65
-54.6939 61.4286 1526.53
-55.102 61.4286 1526.53
-55.5102 61.4286 1526.53
-55.9184 61.4286 1526.53
-56.3265 61.4286 1526.53
-56.6752 61.5857 1530.43
-57.0844 61.5857 1530.43
-57.4936 61.5857 1530.43
-57.9028 61.5857 1530.43
-58.312 61.5857 1530.43
-58.7212 61.5857 1530.43
-59.1304 61.5857 1530.43
-59.5396 61.5857 1530.43
-59.9488 61.5857 1530.43
-60.3581 61.5857 1530.43
-60.7179 61.7436 1534.36
-61.1282 61.7436 1534.36
-61.5385 61.7436 1534.36
-61.9487 61.7436 1534.36
-62.359 61.7436 1534.36
-62.7692 61.7436 1534.36
-63.1795 61.7436 1534.36
-63.5897 61.7436 1534.36
-64 61.7436 1534.36
-64.4103 61.7436 1534.36
-64.8205 61.7436 1534.36
-65.2308 61.7436 1534.36
-65.641 61.7436 1534.36
-66.0513 61.7436 1534.36
-66.4615 61.7436 1534.36
-66.838 61.9023 1538.3
-67.2494 61.9023 1538.3
-67.6607 61.9023 1538.3
-68.072 61.9023 1538.3
-68.4833 61.9023 1538.3
-68.9231 61.7436 1534.36
-69.3333 61.7436 1534.36
-69.7436 61.7436 1534.36
-70.1538 61.7436 1534.36
-70.5882 61.5857 1530.43
-70.9974 61.5857 1530.43
-71.4286 61.4286 1526.53
-71.8367 61.4286 1526.53
-72.2449 61.4286 1526.53
-72.6531 61.4286 1526.53
-73.0612 61.4286 1526.53
-73.4694 61.4286 1526.53
-73.8776 61.4286 1526.53
-74.2857 61.4286 1526.53
-74.7074 61.2723 1522.65
-75.1269 61.1168 1518.78
-75.533 61.1168 1518.78
-75.9391 61.1168 1518.78
-76.3452 61.1168 1518.78
-76.7513 61.1168 1518.78
-77.1574 61.1168 1518.78
-77.5635 61.1168 1518.78
-77.9695 61.1168 1518.78
-78.3756 61.1168 1518.78
-78.7848 60.962 1514.94
-79.1899 60.962 1514.94
-79.5949 60.962 1514.94
-80 60.962 1514.94
-80.4051 60.962 1514.94
-80.8101 60.962 1514.94
-81.2152 60.962 1514.94
-81.6203 60.962 1514.94
-82.0253 60.962 1514.94
-82.4304 60.962 1514.94
-82.8283 60.8081 1511.11
-83.2323 60.8081 1511.11
-83.6364 60.8081 1511.11
-84.0404 60.8081 1511.11
-84.4444 60.8081 1511.11
-84.8485 60.8081 1511.11
-85.2525 60.8081 1511.11
-85.6566 60.8081 1511.11
-86.0606 60.8081 1511.11
-86.4646 60.8081 1511.11
-86.8687 60.8081 1511.11
-87.2911 60.962 1514.94
-87.6962 60.962 1514.94
-88.1013 60.962 1514.94
-88.5063 60.962 1514.94
-88.9114 60.962 1514.94
-89.3165 60.962 1514.94
-89.7215 60.962 1514.94
-90.1266 60.962 1514.94
-90.5316 60.962 1514.94
-90.9367 60.962 1514.94
-91.3418 60.962 1514.94
-91.7468 60.962 1514.94
-92.1827 61.1168 1518.78
-92.557 60.962 1514.94
-92.962 60.962 1514.94
-93.401 61.1168 1518.78
-93.8071 61.1168 1518.78
-94.2132 61.1168 1518.78
-94.6193 61.1168 1518.78
-95.0254 61.1168 1518.78
-95.4315 61.1168 1518.78
-95.8376 61.1168 1518.78
-96.2437 61.1168 1518.78
-96.6497 61.1168 1518.78
-97.0558 61.1168 1518.78
-97.5064 61.2723 1522.65
-97.9135 61.2723 1522.65
-98.3206 61.2723 1522.65
-98.7277 61.2723 1522.65
-99.1349 61.2723 1522.65
-99.5918 61.4286 1526.53
-100.051 61.5857 1530.43
-100.46 61.5857 1530.43
-100.87 61.5857 1530.43
-101.279 61.5857 1530.43
-101.744 61.7436 1534.36
-102.211 61.9023 1538.3
-102.622 61.9023 1538.3
-103.033 61.9023 1538.3
-103.445 61.9023 1538.3
-104.104 62.5455 1554.29
-104.519 62.5455 1554.29
-104.935 62.5455 1554.29
-105.351 62.5455 1554.29
-105.766 62.5455 1554.29
-106.319 62.8721 1562.4
-106.806 63.0366 1566.49
-107.225 63.0366 1566.49
-107.644 63.0366 1566.49
-108.063 63.0366 1566.49
-110.391 67.2626 1671.51
-110.752 67.0752 1666.85
-111.198 67.0752 1666.85
-111.643 67.0752 1666.85
-111.736 66.3361 1648.48
-110.576 63.0366 1566.49
-110.753 62.5455 1554.29
-111.169 62.5455 1554.29
-111.584 62.5455 1554.29
-111.917 62.3834 1550.26
-112.332 62.3834 1550.26
-112.746 62.3834 1550.26
-113.161 62.3834 1550.26
-113.575 62.3834 1550.26
-113.902 62.2222 1546.25
-114.315 62.2222 1546.25
-114.729 62.2222 1546.25
-115.142 62.2222 1546.25
-115.556 62.2222 1546.25
-115.969 62.2222 1546.25
-116.382 62.2222 1546.25
-116.796 62.2222 1546.25
-117.209 62.2222 1546.25
-117.623 62.2222 1546.25
-118.036 62.2222 1546.25
-118.45 62.2222 1546.25
-118.863 62.2222 1546.25
-119.276 62.2222 1546.25
-119.69 62.2222 1546.25
-120.103 62.2222 1546.25
-120.517 62.2222 1546.25
-120.93 62.2222 1546.25
-121.344 62.2222 1546.25
-121.757 62.2222 1546.25
-122.171 62.2222 1546.25
-122.584 62.2222 1546.25
-122.997 62.2222 1546.25
-123.411 62.2222 1546.25
-123.824 62.2222 1546.25
-124.238 62.2222 1546.25
-124.651 62.2222 1546.25
-125.065 62.2222 1546.25
-125.478 62.2222 1546.25
-125.891 62.2222 1546.25
-126.305 62.2222 1546.25
-126.718 62.2222 1546.25
-127.132 62.2222 1546.25
-127.545 62.2222 1546.25
-127.959 62.2222 1546.25
-128.372 62.2222 1546.25
-128.786 62.2222 1546.25
-129.199 62.2222 1546.25
-129.612 62.2222 1546.25
-130.026 62.2222 1546.25
-130.439 62.2222 1546.25
-130.984 62.3834 1550.26
-131.399 62.3834 1550.26
-131.813 62.3834 1550.26
-132.228 62.3834 1550.26
-132.506 62.2222 1546.25
-132.92 62.2222 1546.25
-133.333 62.2222 1546.25
-133.747 62.2222 1546.25
-134.16 62.2222 1546.25
-134.574 62.2222 1546.25
-134.987 62.2222 1546.25
-135.401 62.2222 1546.25
-135.814 62.2222 1546.25
-136.227 62.2222 1546.25
-136.641 62.2222 1546.25
-137.054 62.2222 1546.25
-137.468 62.2222 1546.25
-137.881 62.2222 1546.25
-138.295 62.2222 1546.25
-138.86 62.3834 1550.26
-139.739 62.8721 1562.4
-140.314 63.0366 1566.49
-140.733 63.0366 1566.49
-141.152 63.0366 1566.49
-141.41 62.8721 1562.4
-141.828 62.8721 1562.4
-142.245 62.8721 1562.4
-142.663 62.8721 1562.4
-143.081 62.8721 1562.4
-143.499 62.8721 1562.4
-143.75 62.7083 1558.33
-144.167 62.7083 1558.33
-144.583 62.7083 1558.33
-145 62.7083 1558.33
-145.417 62.7083 1558.33
-145.662 62.5455 1554.29
-146.078 62.5455 1554.29
-146.494 62.5455 1554.29
-146.909 62.5455 1554.29
-147.325 62.5455 1554.29
-147.74 62.5455 1554.29
-148.156 62.5455 1554.29
-148.571 62.5455 1554.29
-148.987 62.5455 1554.29
-149.223 62.3834 1550.26
-149.637 62.3834 1550.26
-150.052 62.3834 1550.26
-150.466 62.3834 1550.26
-150.881 62.3834 1550.26
-151.295 62.3834 1550.26
-151.71 62.3834 1550.26
-152.124 62.3834 1550.26
-152.539 62.3834 1550.26
-152.953 62.3834 1550.26
-153.368 62.3834 1550.26
-153.782 62.3834 1550.26
-154.197 62.3834 1550.26
-154.611 62.3834 1550.26
-155.026 62.3834 1550.26
-155.44 62.3834 1550.26
-155.855 62.3834 1550.26
-156.269 62.3834 1550.26
-156.684 62.3834 1550.26
-157.098 62.3834 1550.26
-157.513 62.3834 1550.26
-157.927 62.3834 1550.26
-158.342 62.3834 1550.26
-158.756 62.3834 1550.26
-159.171 62.3834 1550.26
-159.585 62.3834 1550.26
-160 62.3834 1550.26
-160.415 62.3834 1550.26
-160.829 62.3834 1550.26
-161.244 62.3834 1550.26
-161.237 62.0619 1542.27
-160.203 60.962 1514.94
-160.202 60.6549 1507.3
-160.605 60.6549 1507.3
-161.008 60.6549 1507.3
-161.411 60.6549 1507.3
-161.814 60.6549 1507.3
-162.217 60.6549 1507.3
-162.828 60.8081 1511.11
-163.023 60.6549 1507.3
-163.426 60.6549 1507.3
-163.829 60.6549 1507.3
-164.444 60.8081 1511.11
-164.848 60.8081 1511.11
-165.253 60.8081 1511.11
-165.657 60.8081 1511.11
-166.061 60.8081 1511.11
-166.465 60.8081 1511.11
-166.869 60.8081 1511.11
-167.273 60.8081 1511.11
-167.677 60.8081 1511.11
-168.081 60.8081 1511.11
-168.485 60.8081 1511.11
-168.889 60.8081 1511.11
-169.293 60.8081 1511.11
6.36145 58.4096 1441.93
5.9759 58.4096 1441.93
5.59036 58.4096 1441.93
5.41063 58.5507 1445.41
5.02415 58.5507 1445.41
4.63768 58.5507 1445.41
4.25121 58.5507 1445.41
3.86473 58.5507 1445.41
3.47826 58.5507 1445.41
3.09179 58.5507 1445.41
2.70531 58.5507 1445.41
2.31884 58.5507 1445.41
1.93237 58.5507 1445.41
1.74334 58.6925 1448.91
1.35593 58.6925 1448.91
0.968523 58.6925 1448.91
0.581114 58.6925 1448.91
0.38835 58.835 1452.43
0.194647 58.9781 1455.96
-0.194647 58.9781 1455.96
-0.583942 58.9781 1455.96
-0.973236 58.9781 1455.96
-1.17073 59.122 1459.51
-1.56098 59.122 1459.51
-1.95122 59.122 1459.51
-2.34146 59.122 1459.51
-2.73171 59.122 1459.51
-2.93399 59.2665 1463.08
-3.13725 59.4118 1466.67
-3.52941 59.4118 1466.67
-3.92157 59.4118 1466.67
-4.31373 59.4118 1466.67
-4.14815 59.8519 1477.53
-4.54321 59.8519 1477.53
-4.93827 59.8519 1477.53
-5.33333 59.8519 1477.53
-5.7284 59.8519 1477.53
-5.57214 60.2985 1488.56
-5.78554 60.4489 1492.27
-6.18454 60.4489 1492.27
-6.58354 60.4489 1492.27
-6.98254 60.4489 1492.27
-7.38155 60.4489 1492.27
-7.78055 60.4489 1492.27
-8.17955 60.4489 1492.27
-8.57855 60.4489 1492.27
-8.97756 60.4489 1492.27
-9.2 60.6 1496
-9.6 60.6 1496
-10 60.6 1496
-10.4 60.6 1496
-10.8 60.6 1496
-11.2 60.6 1496
-11.6 60.6 1496
-12 60.6 1496
-12.4 60.6 1496
-12.8 60.6 1496
-13.2 60.6 1496
-13.6 60.6 1496
-14 60.6 1496
-14.4 60.6 1496
-14.8 60.6 1496
-15.2 60.6 1496
-15.4386 60.7519 1499.75
-15.8396 60.7519 1499.75
-16.2406 60.7519 1499.75
-16.6416 60.7519 1499.75
-17.0426 60.7519 1499.75
-17.4436 60.7519 1499.75
-17.8446 60.7519 1499.75
-18.2456 60.7519 1499.75
-18.6466 60.7519 1499.75
-19.0476 60.7519 1499.75
-19.4486 60.7519 1499.75
-19.8496 60.7519 1499.75
-20.2506 60.7519 1499.75
-20.8 60.6 1496
-21.2 60.6 1496
-21.6 60.6 1496
-22 60.6 1496
-22.4 60.6 1496
-22.8 60.6 1496
-23.3416 60.4489 1492.27
-23.7406 60.4489 1492.27
-24.1397 60.4489 1492.27
-24.5387 60.4489 1492.27
-25.0746 60.2985 1488.56
-25.4726 60.2985 1488.56
-25.8706 60.2985 1488.56
-26.2687 60.2985 1488.56
-26.6667 60.2985 1488.56
-27.196 60.1489 1484.86
-27.5931 60.1489 1484.86
-27.9901 60.1489 1484.86
-28.3871 60.1489 1484.86
-28.7841 60.1489 1484.86
-29.1811 60.1489 1484.86
-29.5782 60.1489 1484.86
-29.9752 60.1489 1484.86
-30.3722 60.1489 1484.86
-30.7692 60.1489 1484.86
-31.1663 60.1489 1484.86
-31.5633 60.1489 1484.86
-31.9603 60.1489 1484.86
-32.3573 60.1489 1484.86
-32.7543 60.1489 1484.86
-33.1514 60.1489 1484.86
-33.5484 60.1489 1484.86
-33.9454 60.1489 1484.86
-34.3424 60.1489 1484.86
-34.7395 60.1489 1484.86
-35.1365 60.1489 1484.86
-35.5335 60.1489 1484.86
-35.9305 60.1489 1484.86
-36.3275 60.1489 1484.86
-36.7246 60.1489 1484.86
-37.1216 60.1489 1484.86
-37.5186 60.1489 1484.86
-37.9156 60.1489 1484.86
-38.3127 60.1489 1484.86
-38.7097 60.1489 1484.86
-39.1067 60.1489 1484.86
-39.5037 60.1489 1484.86
-39.9007 60.1489 1484.86
-40.2978 60.1489 1484.86
-40.6948 60.1489 1484.86
-41.0918 60.1489 1484.86
-41.4888 60.1489 1484.86
-41.8859 60.1489 1484.86
-42.2829 60.1489 1484.86
-42.6799 60.1489 1484.86
-43.0769 60.1489 1484.86
-43.3831 60.2985 1488.56
-43.7811 60.2985 1488.56
-44.1791 60.2985 1488.56
-44.5771 60.2985 1488.56
-44.9751 60.2985 1488.56
-45.2868 60.4489 1492.27
-45.6858 60.4489 1492.27
-46.0848 60.4489 1492.27
-46.4838 60.4489 1492.27
-46.8828 60.4489 1492.27
-47.2818 60.4489 1492.27
-47.6 60.6 1496
-48 60.6 1496
-48.4 60.6 1496
-48.8 60.6 1496
-49.1228 60.7519 1499.75
-49.4472 60.9045 1503.52
-49.8492 60.9045 1503.52
-50.2513 60.9045 1503.52
-50.6533 60.9045 1503.52
-50.9824 61.0579 1507.3
-51.3131 61.2121 1511.11
-51.7172 61.2121 1511.11
-52.1212 61.2121 1511.11
-52.5253 61.2121 1511.11
-52.7919 61.5228 1518.78
-53.1298 61.6794 1522.65
-53.5369 61.6794 1522.65
-53.944 61.6794 1522.65
-54.3511 61.6794 1522.65
-54.7583 61.6794 1522.65
-55.102 61.8367 1526.53
-55.5102 61.8367 1526.53
-55.9184 61.8367 1526.53
-56.3265 61.8367 1526.53
-56.7347 61.8367 1526.53
-57.0844 61.9949 1530.43
-57.4936 61.9949 1530.43
-57.9028 61.9949 1530.43
-58.312 61.9949 1530.43
-58.7212 61.9949 1530.43
-59.1304 61.9949 1530.43
-59.5396 61.9949 1530.43
-59.9488 61.9949 1530.43
-60.3581 61.9949 1530.43
-60.7673 61.9949 1530.43
-61.1282 62.1538 1534.36
-61.5385 62.1538 1534.36
-61.9487 62.1538 1534.36
-62.359 62.1538 1534.36
-62.7692 62.1538 1534.36
-63.1795 62.1538 1534.36
-63.5897 62.1538 1534.36
-64 62.1538 1534.36
-64.4103 62.1538 1534.36
-64.8205 62.1538 1534.36
-65.2308 62.1538 1534.36
-65.641 62.1538 1534.36
-66.0513 62.1538 1534.36
-66.4615 62.1538 1534.36
-66.8718 62.1538 1534.36
-67.2494 62.3136 1538.3
-67.6607 62.3136 1538.3
-68.072 62.3136 1538.3
-68.5128 62.1538 1534.36
-68.9231 62.1538 1534.36
-69.3333 62.1538 1534.36
-69.7436 62.1538 1534.36
-70.1538 62.1538 1534.36
-70.5882 61.9949 1530.43
-70.9974 61.9949 1530.43
-71.4066 61.9949 1530.43
-71.8159 61.9949 1530.43
-72.2251 61.9949 1530.43
-72.6531 61.8367 1526.53
-73.0612 61.8367 1526.53
-73.4694 61.8367 1526.53
-73.8776 61.8367 1526.53
-74.2857 61.8367 1526.53
-74.7074 61.6794 1522.65
-75.1269 61.5228 1518.78
-75.533 61.5228 1518.78
-75.9391 61.5228 1518.78
-76.3452 61.5228 1518.78
-76.7513 61.5228 1518.78
-77.1574 61.5228 1518.78
-77.5635 61.5228 1518.78
-77.9695 61.5228 1518.78
-78.3756 61.5228 1518.78
-78.7848 61.3671 1514.94
-79.1899 61.3671 1514.94
-79.5949 61.3671 1514.94
-80 61.3671 1514.94
-80.4051 61.3671 1514.94
-80.8101 61.3671 1514.94
-81.2152 61.3671 1514.94
-81.6203 61.3671 1514.94
-82.0253 61.3671 1514.94
-82.4304 61.3671 1514.94
-82.8354 61.3671 1514.94
-83.2405 61.3671 1514.94
-83.6456 61.3671 1514.94
-84.0506 61.3671 1514.94
-84.4557 61.3671 1514.94
-84.8485 61.2121 1511.11
-85.2525 61.2121 1511.11
-85.6566 61.2121 1511.11
-86.0606 61.2121 1511.11
-86.4646 61.2121 1511.11
-86.8687 61.2121 1511.11
-87.2727 61.2121 1511.11
-87.6962 61.3671 1514.94
-88.1013 61.3671 1514.94
-88.5063 61.3671 1514.94
-88.9114 61.3671 1514.94
-89.3165 61.3671 1514.94
-89.7215 61.3671 1514.94
-90.1266 61.3671 1514.94
-90.5316 61.3671 1514.94
-90.9367 61.3671 1514.94
-91.3418 61.3671 1514.94
-91.7766 61.5228 1518.78
-92.1827 61.5228 1518.78
-92.5888 61.5228 1518.78
-92.9949 61.5228 1518.78
-93.401 61.5228 1518.78
-93.8071 61.5228 1518.78
-94.2132 61.5228 1518.78
-94.6193 61.5228 1518.78
-95.0254 61.5228 1518.78
-95.4315 61.5228 1518.78
-95.8779 61.6794 1522.65
-96.285 61.6794 1522.65
-96.6921 61.6794 1522.65
-97.0992 61.6794 1522.65
-97.5064 61.6794 1522.65
-97.9135 61.6794 1522.65
-98.3206 61.6794 1522.65
-98.7277 61.6794 1522.65
-99.1349 61.6794 1522.65
-99.5918 61.8367 1526.53
-100.051 61.9949 1530.43
-100.46 61.9949 1530.43
-100.87 61.9949 1530.43
-101.279 61.9949 1530.43
-101.744 62.1538 1534.36
-102.211 62.3136 1538.3
-102.622 62.3136 1538.3
-103.033 62.3136 1538.3
-103.445 62.3136 1538.3
-104.041 62.7979 1550.26
-104.519 62.961 1554.29
-104.935 62.961 1554.29
-105.351 62.961 1554.29
-105.766 62.961 1554.29
-106.319 63.2898 1562.4
-106.806 63.4555 1566.49
-107.225 63.4555 1566.49
-107.644 63.4555 1566.49
-108.063 63.4555 1566.49
-110.306 67.5209 1666.85
-110.838 67.7095 1671.51
-111.285 67.7095 1671.51
-111.732 67.7095 1671.51
-112.089 67.5209 1666.85
-110.338 62.961 1554.29
-110.753 62.961 1554.29
-111.169 62.961 1554.29
-111.584 62.961 1554.29
-111.917 62.7979 1550.26
-112.332 62.7979 1550.26
-112.746 62.7979 1550.26
-113.161 62.7979 1550.26
-113.575 62.7979 1550.26
-113.902 62.6357 1546.25
-114.315 62.6357 1546.25
-114.729 62.6357 1546.25
-115.142 62.6357 1546.25
-115.556 62.6357 1546.25
-115.969 62.6357 1546.25
-116.382 62.6357 1546.25
-116.796 62.6357 1546.25
-117.209 62.6357 1546.25
-117.623 62.6357 1546.25
-118.036 62.6357 1546.25
-118.45 62.6357 1546.25
-118.863 62.6357 1546.25
-119.276 62.6357 1546.25
-119.69 62.6357 1546.25
-120.103 62.6357 1546.25
-120.517 62.6357 1546.25
-120.93 62.6357 1546.25
-121.344 62.6357 1546.25
-121.757 62.6357 1546.25
-122.171 62.6357 1546.25
-122.584 62.6357 1546.25
-122.997 62.6357 1546.25
-123.411 62.6357 1546.25
-123.824 62.6357 1546.25
-124.238 62.6357 1546.25
-124.651 62.6357 1546.25
-125.065 62.6357 1546.25
-125.478 62.6357 1546.25
-125.891 62.6357 1546.25
-126.305 62.6357 1546.25
-126.718 62.6357 1546.25
-127.132 62.6357 1546.25
-127.545 62.6357 1546.25
-127.959 62.6357 1546.25
-128.372 62.6357 1546.25
-128.786 62.6357 1546.25
-129.199 62.6357 1546.25
-129.612 62.6357 1546.25
-130.026 62.6357 1546.25
-130.439 62.6357 1546.25
-130.853 62.6357 1546.25
-131.399 62.7979 1550.26
-131.813 62.7979 1550.26
-132.228 62.7979 1550.26
-132.642 62.7979 1550.26
-132.92 62.6357 1546.25
-133.333 62.6357 1546.25
-133.747 62.6357 1546.25
-134.16 62.6357 1546.25
-134.574 62.6357 1546.25
-134.987 62.6357 1546.25
-135.401 62.6357 1546.25
-135.814 62.6357 1546.25
-136.227 62.6357 1546.25
-136.641 62.6357 1546.25
-137.054 62.6357 1546.25
-137.617 62.7979 1550.26
-138.031 62.7979 1550.26
-138.446 62.7979 1550.26
-138.86 62.7979 1550.26
-139.739 63.2898 1562.4
-140.314 63.4555 1566.49
-140.733 63.4555 1566.49
-141.152 63.4555 1566.49
-141.41 63.2898 1562.4
-141.828 63.2898 1562.4
-142.245 63.2898 1562.4
-142.663 63.2898 1562.4
-143.081 63.2898 1562.4
-143.499 63.2898 1562.4
-143.916 63.2898 1562.4
-144.334 63.2898 1562.4
-144.752 63.2898 1562.4
-145.17 63.2898 1562.4
-145.417 63.125 1558.33
-145.662 62.961 1554.29
-146.078 62.961 1554.29
-146.494 62.961 1554.29
-146.909 62.961 1554.29
-147.325 62.961 1554.29
-147.74 62.961 1554.29
-148.156 62.961 1554.29
-148.571 62.961 1554.29
-148.987 62.961 1554.29
-149.223 62.7979 1550.26
-149.637 62.7979 1550.26
-150.052 62.7979 1550.26
-150.466 62.7979 1550.26
-150.881 62.7979 1550.26
-151.295 62.7979 1550.26
-151.71 62.7979 1550.26
-152.124 62.7979 1550.26
-152.539 62.7979 1550.26
-152.953 62.7979 1550.26
-153.368 62.7979 1550.26
-153.782 62.7979 1550.26
-154.197 62.7979 1550.26
-154.611 62.7979 1550.26
-155.026 62.7979 1550.26
-155.44 62.7979 1550.26
-155.855 62.7979 1550.26
-156.269 62.7979 1550.26
-156.684 62.7979 1550.26
-157.098 62.7979 1550.26
-157.513 62.7979 1550.26
-157.927 62.7979 1550.26
-158.342 62.7979 1550.26
-158.756 62.7979 1550.26
-159.171 62.7979 1550.26
-159.585 62.7979 1550.26
-160 62.7979 1550.26
-160.415 62.7979 1550.26
-160.829 62.7979 1550.26
-161.244 62.7979 1550.26
-161.237 62.4742 1542.27
-160.203 61.3671 1514.94
-160.404 61.2121 1511.11
-160.808 61.2121 1511.11
-161.212 61.2121 1511.11
-161.616 61.2121 1511.11
-162.02 61.2121 1511.11
-162.424 61.2121 1511.11
-162.828 61.2121 1511.11
-163.232 61.2121 1511.11
-163.636 61.2121 1511.11
-164.04 61.2121 1511.11
-164.444 61.2121 1511.11
-164.848 61.2121 1511.11
-165.253 61.2121 1511.11
-165.657 61.2121 1511.11
-166.061 61.2121 1511.11
-166.684 61.3671 1514.94
-167.089 61.3671 1514.94
-167.494 61.3671 1514.94
-167.899 61.3671 1514.94
-168.304 61.3671 1514.94
-168.709 61.3671 1514.94
-169.114 61.3671 1514.94
-169.519 61.3671 1514.94
6.36145 58.7952 1441.93
5.9759 58.7952 1441.93
5.59036 58.7952 1441.93
5.41063 58.9372 1445.41
5.02415 58.9372 1445.41
4.63768 58.9372 1445.41
4.25121 58.9372 1445.41
3.86473 58.9372 1445.41
3.47826 58.9372 1445.41
3.09179 58.9372 1445.41
2.70531 58.9372 1445.41
2.31884 58.9372 1445.41
1.93237 58.9372 1445.41
1.74334 59.0799 1448.91
1.35593 59.0799 1448.91
0.968523 59.0799 1448.91
0.581114 59.0799 1448.91
0.38835 59.2233 1452.43
0.194647 59.3674 1455.96
-0.194647 59.3674 1455.96
-0.583942 59.3674 1455.96
-0.973236 59.3674 1455.96
-1.36253 59.3674 1455.96
-1.56098 59.5122 1459.51
-1.95122 59.5122 1459.51
-2.34146 59.5122 1459.51
-2.73171 59.5122 1459.51
-2.93399 59.6577 1463.08
-3.13725 59.8039 1466.67
-3.52941 59.8039 1466.67
-3.92157 59.8039 1466.67
-4.31373 59.8039 1466.67
-4.33498 60.0985 1473.89
-4.54321 60.2469 1477.53
-4.93827 60.2469 1477.53
-5.33333 60.2469 1477.53
-5.7284 60.2469 1477.53
-5.57214 60.6965 1488.56
-5.78554 60.8479 1492.27
-6.18454 60.8479 1492.27
-6.58354 60.8479 1492.27
-6.98254 60.8479 1492.27
-7.38155 60.8479 1492.27
-7.78055 60.8479 1492.27
-8.17955 60.8479 1492.27
-8.57855 60.8479 1492.27
-8.97756 60.8479 1492.27
-9.37656 60.8479 1492.27
-9.6 61 1496
-10 61 1496
-10.4 61 1496
-10.8 61 1496
-11.2 61 1496
-11.6 61 1496
-12 61 1496
-12.4 61 1496
-12.8 61 1496
-13.2 61 1496
-13.6 61 1496
-14 61 1496
-14.4 61 1496
-14.8 61 1496
-15.2 61 1496
-15.4386 61.1529 1499.75
-15.8396 61.1529 1499.75
-16.2406 61.1529 1499.75
-16.6416 61.1529 1499.75
-17.0426 61.1529 1499.75
-17.4436 61.1529 1499.75
-17.8446 61.1529 1499.75
-18.2456 61.1529 1499.75
-18.6466 61.1529 1499.75
-19.0476 61.1529 1499.75
-19.4486 61.1529 1499.75
-19.8496 61.1529 1499.75
-20.2506 61.1529 1499.75
-20.8 61 1496
-21.2 61 1496
-21.6 61 1496
-22 61 1496
-22.4 61 1496
-22.9426 60.8479 1492.27
-23.3416 60.8479 1492.27
-23.7406 60.8479 1492.27
-24.1397 60.8479 1492.27
-24.5387 60.8479 1492.27
-25.0746 60.6965 1488.56
-25.4726 60.6965 1488.56
-25.8706 60.6965 1488.56
-26.2687 60.6965 1488.56
-26.6667 60.6965 1488.56
-27.196 60.5459 1484.86
-27.5931 60.5459 1484.86
-27.9901 60.5459 1484.86
-28.3871 60.5459 1484.86
-28.7841 60.5459 1484.86
-29.1811 60.5459 1484.86
-29.5782 60.5459 1484.86
-29.9752 60.5459 1484.86
-30.3722 60.5459 1484.86
-30.7692 60.5459 1484.86
-31.1663 60.5459 1484.86
-31.5633 60.5459 1484.86
-31.9603 60.5459 1484.86
-32.3573 60.5459 1484.86
-32.7543 60.5459 1484.86
-33.1514 60.5459 1484.86
-33.5484 60.5459 1484.86
-33.9454 60.5459 1484.86
-34.3424 60.5459 1484.86
-34.7395 60.5459 1484.86
-35.1365 60.5459 1484.86
-35.5335 60.5459 1484.86
-35.9305 60.5459 1484.86
-36.3275 60.5459 1484.86
-36.7246 60.5459 1484.86
-37.1216 60.5459 1484.86
-37.5186 60.5459 1484.86
-37.9156 60.5459 1484.86
-38.3127 60.5459 1484.86
-38.7097 60.5459 1484.86
-39.1067 60.5459 1484.86
-39.5037 60.5459 1484.86
-39.9007 60.5459 1484.86
-40.2978 60.5459 1484.86
-40.6948 60.5459 1484.86
-41.0918 60.5459 1484.86
-41.4888 60.5459 1484.86
-41.8859 60.5459 1484.86
-42.2829 60.5459 1484.86
-42.6799 60.5459 1484.86
-43.0769 60.5459 1484.86
-43.4739 60.5459 1484.86
-43.7811 60.6965 1488.56
-44.1791 60.6965 1488.56
-44.5771 60.6965 1488.56
-44.9751 60.6965 1488.56
-45.3731 60.6965 1488.56
-45.6858 60.8479 1492.27
-46.0848 60.8479 1492.27
-46.4838 60.8479 1492.27
-46.8828 60.8479 1492.27
-47.2818 60.8479 1492.27
-47.6 61 1496
-48 61 1496
-48.4 61 1496
-48.8 61 1496
-49.1228 61.1529 1499.75
-49.4472 61.3065 1503.52
-49.8492 61.3065 1503.52
-50.2513 61.3065 1503.52
-50.6533 61.3065 1503.52
-50.9824 61.461 1507.3
-51.3131 61.6162 1511.11
-51.7172 61.6162 1511.11
-52.1212 61.6162 1511.11
-52.5253 61.6162 1511.11
-52.7919 61.9289 1518.78
-53.1298 62.0865 1522.65
-53.5369 62.0865 1522.65
-53.944 62.0865 1522.65
-54.3511 62.0865 1522.65
-54.7583 62.0865 1522.65
-55.102 62.2449 1526.53
-55.5102 62.2449 1526.53
-55.9184 62.2449 1526.53
-56.3265 62.2449 1526.53
-56.7347 62.2449 1526.53
-57.0844 62.4041 1530.43
-57.4936 62.4041 1530.43
-57.9028 62.4041 1530.43
-58.312 62.4041 1530.43
-58.7212 62.4041 1530.43
-59.1304 62.4041 1530.43
-59.5396 62.4041 1530.43
-59.9488 62.4041 1530.43
-60.3581 62.4041 1530.43
-60.7673 62.4041 1530.43
-61.1282 62.5641 1534.36
-61.5385 62.5641 1534.36
-61.9487 62.5641 1534.36
-62.359 62.5641 1534.36
-62.7692 62.5641 1534.36
-63.1795 62.5641 1534.36
-63.5897 62.5641 1534.36
-64 62.5641 1534.36
-64.4103 62.5641 1534.36
-64.8205 62.5641 1534.36
-65.2308 62.5641 1534.36
-65.641 62.5641 1534.36
-66.0513 62.5641 1534.36
-66.4615 62.5641 1534.36
-66.838 62.7249 1538.3
-67.2494 62.7249 1538.3
-67.6607 62.7249 1538.3
-68.072 62.7249 1538.3
-68.5128 62.5641 1534.36
-68.9231 62.5641 1534.36
-69.3333 62.5641 1534.36
-69.7436 62.5641 1534.36
-70.1538 62.5641 1534.36
-70.5882 62.4041 1530.43
-70.9974 62.4041 1530.43
-71.4066 62.4041 1530.43
-71.8159 62.4041 1530.43
-72.2251 62.4041 1530.43
-72.6531 62.2449 1526.53
-73.0612 62.2449 1526.53
-73.4694 62.2449 1526.53
-73.8776 62.2449 1526.53
-74.2857 62.2449 1526.53
-74.7074 62.0865 1522.65
-75.1269 61.9289 1518.78
-75.533 61.9289 1518.78
-75.9391 61.9289 1518.78
-76.3452 61.9289 1518.78
-76.7513 61.9289 1518.78
-77.1574 61.9289 1518.78
-77.5635 61.9289 1518.78
-77.9695 61.9289 1518.78
-78.3756 61.9289 1518.78
-78.7848 61.7722 1514.94
-79.1899 61.7722 1514.94
-79.5949 61.7722 1514.94
-80 61.7722 1514.94
-80.4051 61.7722 1514.94
-80.8101 61.7722 1514.94
-81.2152 61.7722 1514.94
-81.6203 61.7722 1514.94
-82.0253 61.7722 1514.94
-82.4304 61.7722 1514.94
-82.8354 61.7722 1514.94
-83.2405 61.7722 1514.94
-83.6456 61.7722 1514.94
-84.0506 61.7722 1514.94
-84.4557 61.7722 1514.94
-84.8485 61.6162 1511.11
-85.2525 61.6162 1511.11
-85.6566 61.6162 1511.11
-86.0606 61.6162 1511.11
-86.4646 61.6162 1511.11
-86.8687 61.6162 1511.11
-87.2727 61.6162 1511.11
-87.6962 61.7722 1514.94
-88.1013 61.7722 1514.94
-88.5063 61.7722 1514.94
-88.9114 61.7722 1514.94
-89.3165 61.7722 1514.94
-89.7215 61.7722 1514.94
-90.1266 61.7722 1514.94
-90.5316 61.7722 1514.94
-90.9367 61.7722 1514.94
-91.3418 61.7722 1514.94
-91.7766 61.9289 1518.78
-92.1827 61.9289 1518.78
-92.5888 61.9289 1518.78
-92.9949 61.9289 1518.78
-93.401 61.9289 1518.78
-93.8071 61.9289 1518.78
-94.2132 61.9289 1518.78
-94.6193 61.9289 1518.78
-95.0254 61.9289 1518.78
-95.4707 62.0865 1522.65
-95.8779 62.0865 1522.65
-96.285 62.0865 1522.65
-96.6921 62.0865 1522.65
-97.0992 62.0865 1522.65
-97.5064 62.0865 1522.65
-97.9135 62.0865 1522.65
-98.3206 62.0865 1522.65
-98.7277 62.0865 1522.65
-99.1349 62.0865 1522.65
-99.5918 62.2449 1526.53
-100.051 62.4041 1530.43
-100.46 62.4041 1530.43
-100.87 62.4041 1530.43
-101.279 62.4041 1530.43
-101.799 62.7249 1538.3
-102.211 62.7249 1538.3
-102.622 62.7249 1538.3
-103.033 62.7249 1538.3
-103.445 62.7249 1538.3
-104.041 63.2124 1550.26
-104.519 63.3766 1554.29
-104.935 63.3766 1554.29
-105.351 63.3766 1554.29
-105.766 63.3766 1554.29
-106.319 63.7076 1562.4
-106.806 63.8743 1566.49
-107.225 63.8743 1566.49
-107.644 63.8743 1566.49
-108.211 64.2105 1574.74
-110.139 67.59 1657.62
-110.838 68.1564 1671.51
-111.285 68.1564 1671.51
-111.732 68.1564 1671.51
-112 67.7778 1662.22
-110.417 63.5417 1558.33
-110.753 63.3766 1554.29
-111.169 63.3766 1554.29
-111.584 63.3766 1554.29
-111.917 63.2124 1550.26
-112.332 63.2124 1550.26
-112.746 63.2124 1550.26
-113.161 63.2124 1550.26
-113.575 63.2124 1550.26
-113.902 63.0491 1546.25
-114.315 63.0491 1546.25
-114.729 63.0491 1546.25
-115.142 63.0491 1546.25
-115.556 63.0491 1546.25
-115.969 63.0491 1546.25
-116.382 63.0491 1546.25
-116.796 63.0491 1546.25
-117.209 63.0491 1546.25
-117.623 63.0491 1546.25
-118.036 63.0491 1546.25
-118.45 63.0491 1546.25
-118.863 63.0491 1546.25
-119.276 63.0491 1546.25
-119.69 63.0491 1546.25
-120.103 63.0491 1546.25
-120.517 63.0491 1546.25
-120.93 63.0491 1546.25
-121.344 63.0491 1546.25
-121.757 63.0491 1546.25
-122.171 63.0491 1546.25
-122.584 63.0491 1546.25
-122.997 63.0491 1546.25
-123.411 63.0491 1546.25
-123.824 63.0491 1546.25
-124.238 63.0491 1546.25
-124.651 63.0491 1546.25
-125.065 63.0491 1546.25
-125.478 63.0491 1546.25
-125.891 63.0491 1546.25
-126.305 63.0491 1546.25
-126.718 63.0491 1546.25
-127.132 63.0491 1546.25
-127.545 63.0491 1546.25
-127.959 63.0491 1546.25
-128.372 63.0491 1546.25
-128.786 63.0491 1546.25
-129.199 63.0491 1546.25
-129.612 63.0491 1546.25
-130.026 63.0491 1546.25
-130.439 63.0491 1546.25
-130.853 63.0491 1546.25
-131.399 63.2124 1550.26
-131.813 63.2124 1550.26
-132.228 63.2124 1550.26
-132.506 63.0491 1546.25
-132.92 63.0491 1546.25
-133.333 63.0491 1546.25
-133.747 63.0491 1546.25
-134.16 63.0491 1546.25
-134.574 63.0491 1546.25
-134.987 63.0491 1546.25
-135.401 63.0491 1546.25
-135.814 63.0491 1546.25
-136.227 63.0491 1546.25
-136.641 63.0491 1546.25
-137.202 63.2124 1550.26
-137.617 63.2124 1550.26
-138.031 63.2124 1550.26
-138.446 63.2124 1550.26
-138.86 63.2124 1550.26
-139.739 63.7076 1562.4
-140.314 63.8743 1566.49
-140.733 63.8743 1566.49
-141.152 63.8743 1566.49
-141.41 63.7076 1562.4
-141.828 63.7076 1562.4
-142.245 63.7076 1562.4
-142.663 63.7076 1562.4
-143.081 63.7076 1562.4
-143.499 63.7076 1562.4
-143.916 63.7076 1562.4
-144.334 63.7076 1562.4
-144.752 63.7076 1562.4
-145.17 63.7076 1562.4
-145.417 63.5417 1558.33
-145.662 63.3766 1554.29
-146.078 63.3766 1554.29
-146.494 63.3766 1554.29
-146.909 63.3766 1554.29
-147.325 63.3766 1554.29
-147.74 63.3766 1554.29
-148.156 63.3766 1554.29
-148.571 63.3766 1554.29
-148.987 63.3766 1554.29
-149.223 63.2124 1550.26
-149.637 63.2124 1550.26
-150.052 63.2124 1550.26
-150.466 63.2124 1550.26
-150.881 63.2124 1550.26
-151.295 63.2124 1550.26
-151.71 63.2124 1550.26
-152.124 63.2124 1550.26
-152.539 63.2124 1550.26
-152.953 63.2124 1550.26
-153.368 63.2124 1550.26
-153.782 63.2124 1550.26
-154.197 63.2124 1550.26
-154.611 63.2124 1550.26
-155.026 63.2124 1550.26
-155.44 63.2124 1550.26
-155.855 63.2124 1550.26
-156.269 63.2124 1550.26
-156.684 63.2124 1550.26
-157.098 63.2124 1550.26
-157.513 63.2124 1550.26
-157.927 63.2124 1550.26
-158.342 63.2124 1550.26
-158.756 63.2124 1550.26
-159.171 63.2124 1550.26
-159.585 63.2124 1550.26
-160 63.2124 1550.26
-160.415 63.2124 1550.26
-160.829 63.2124 1550.26
-161.244 63.2124 1550.26
-161.447 63.0491 1546.25
-160 61.6162 1511.11
-160.404 61.6162 1511.11
-160.808 61.6162 1511.11
-161.212 61.6162 1511.11
-161.616 61.6162 1511.11
-162.02 61.6162 1511.11
-162.424 61.6162 1511.11
-162.828 61.6162 1511.11
-163.232 61.6162 1511.11
-163.636 61.6162 1511.11
-164.04 61.6162 1511.11
-164.444 61.6162 1511.11
-164.848 61.6162 1511.11
-165.253 61.6162 1511.11
-165.657 61.6162 1511.11
-166.061 61.6162 1511.11
-166.684 61.7722 1514.94
-167.089 61.7722 1514.94
-167.494 61.7722 1514.94
-167.899 61.7722 1514.94
-168.304 61.7722 1514.94
-168.709 61.7722 1514.94
-169.114 61.7722 1514.94
-169.519 61.7722 1514.94
6.36145 59.1807 1441.93
5.9759 59.1807 1441.93
5.59036 59.1807 1441.93
5.41063 59.3237 1445.41
5.02415 59.3237 1445.41
