1.92771 53.253 1802.41
1.69184 53.4139 1807.85
1.20846 53.4139 1807.85
0.725076 53.4139 1807.85
0.241692 53.4139 1807.85
-0.241692 53.4139 1807.85
-0.484848 53.5758 1813.33
-0.969697 53.5758 1813.33
-1.45455 53.5758 1813.33
-1.93939 53.5758 1813.33
-2.18845 53.7386 1818.84
-2.67477 53.7386 1818.84
-3.16109 53.7386 1818.84
-3.64742 53.7386 1818.84
-4.13374 53.7386 1818.84
-4.39024 53.9024 1824.39
-4.87805 53.9024 1824.39
-5.36585 53.9024 1824.39
-5.85366 53.9024 1824.39
-6.34146 53.9024 1824.39
-6.82927 53.9024 1824.39
-7.53799 53.7386 1818.84
-8.02432 53.7386 1818.84
-8.9426 53.4139 1807.85
-8.99696 53.7386 1818.84
-9.48328 53.7386 1818.84
-10.8108 53.0931 1797
-11.497 52.9341 1791.62
-11.976 52.9341 1791.62
-12.6567 52.7761 1786.27
-12.9341 52.9341 1791.62
-13.6119 52.7761 1786.27
-14.0896 52.7761 1786.27
-14.5672 52.7761 1786.27
-15.0448 52.7761 1786.27
-15.5224 52.7761 1786.27
-16 52.7761 1786.27
-16.4776 52.7761 1786.27
-16.9552 52.7761 1786.27
-17.4328 52.7761 1786.27
-17.9104 52.7761 1786.27
-18.2036 52.9341 1791.62
-18.6826 52.9341 1791.62
-19.1617 52.9341 1791.62
-19.6407 52.9341 1791.62
-19.9399 53.0931 1797
-20.4204 53.0931 1797
-20.9009 53.0931 1797
-21.3814 53.0931 1797
-21.6867 53.253 1802.41
-22.3423 53.0931 1797
-22.6506 53.253 1802.41
-23.1325 53.253 1802.41
-23.6145 53.253 1802.41
-24.0964 53.253 1802.41
-24.5783 53.253 1802.41
-25.0602 53.253 1802.41
-25.5422 53.253 1802.41
-26.0241 53.253 1802.41
-26.506 53.253 1802.41
-26.988 53.253 1802.41
-27.4699 53.253 1802.41
-27.9518 53.253 1802.41
-28.2779 53.4139 1807.85
-28.9157 53.253 1802.41
-29.3976 53.253 1802.41
-29.8795 53.253 1802.41
-30.3614 53.253 1802.41
-30.6949 53.4139 1807.85
-31.3253 53.253 1802.41
-31.6616 53.4139 1807.85
-32 53.5758 1813.33
-32.3404 53.7386 1818.84
-32.9697 53.5758 1813.33
-33.3131 53.7386 1818.84
-33.7994 53.7386 1818.84
-34.2857 53.7386 1818.84
-34.6341 53.9024 1824.39
-35.122 53.9024 1824.39
-35.474 54.0673 1829.97
-35.8282 54.2331 1835.58
-36.319 54.2331 1835.58
-36.6769 54.4 1841.23
-36.904 54.7368 1852.63
-37.3994 54.7368 1852.63
-37.5 55.25 1870
-37.4684 55.9494 1893.67
-37.4359 56.6667 1917.95
-37.6774 57.0323 1930.32
-37.5082 57.9672 1961.97
-37.6159 58.543 1981.46
-38.0066 58.7375 1988.04
-39.082 57.9672 1961.97
-39.0698 58.7375 1988.04
-37.7778 61.3889 2077.78
-40.1329 58.7375 1988.04
-40 59.7297 2021.62
-41.4521 58.3498 1974.92
-42.5974 57.4026 1942.86
-43.1169 57.4026 1942.86
-44.4444 56.127 1899.68
-44.6154 56.6667 1917.95
-45.5696 55.9494 1893.67
-46.5 55.25 1870
-47.6074 54.2331 1835.58
-48.1957 54.0673 1829.97
-48.7805 53.9024 1824.39
-49.2683 53.9024 1824.39
-49.7561 53.9024 1824.39
-50.3343 53.7386 1818.84
-50.8207 53.7386 1818.84
-51.307 53.7386 1818.84
-51.8788 53.5758 1813.33
-52.3636 53.5758 1813.33
-52.8485 53.5758 1813.33
-53.3333 53.5758 1813.33
-53.8182 53.5758 1813.33
-54.303 53.5758 1813.33
-54.7879 53.5758 1813.33
-55.3474 53.4139 1807.85
-55.8308 53.4139 1807.85
-56.3142 53.4139 1807.85
-56.7976 53.4139 1807.85
-57.281 53.4139 1807.85
-57.7644 53.4139 1807.85
-58.2477 53.4139 1807.85
-58.7311 53.4139 1807.85
-59.2145 53.4139 1807.85
-59.6979 53.4139 1807.85
-60.1813 53.4139 1807.85
-60.6647 53.4139 1807.85
-61.148 53.4139 1807.85
-61.6314 53.4139 1807.85
-62.1148 53.4139 1807.85
-62.5982 53.4139 1807.85
-63.0816 53.4139 1807.85
-63.565 53.4139 1807.85
-64.0483 53.4139 1807.85
-64.5317 53.4139 1807.85
-65.0151 53.4139 1807.85
-65.4985 53.4139 1807.85
-66.0241 53.253 1802.41
-66.506 53.253 1802.41
-66.988 53.253 1802.41
-67.4699 53.253 1802.41
-67.9518 53.253 1802.41
-68.4337 53.253 1802.41
-68.9157 53.253 1802.41
-69.3976 53.253 1802.41
-69.8795 53.253 1802.41
-70.3614 53.253 1802.41
-70.8434 53.253 1802.41
-71.3253 53.253 1802.41
-71.8318 53.0931 1797
-72.3123 53.0931 1797
-72.8783 52.4629 1775.67
-73.3728 52.3077 1770.41
-73.8462 52.3077 1770.41
-74.3363 52.1534 1765.19
-74.8083 52.1534 1765.19
-75.2941 52 1760
-75.7647 52 1760
-76.2353 52 1760
-76.7059 52 1760
-77.2012 51.5452 1744.61
-77.6676 51.5452 1744.61
-78.1341 51.5452 1744.61
-78.6006 51.5452 1744.61
-79.0671 51.5452 1744.61
-79.5335 51.5452 1744.61
-80 51.5452 1744.61
-80.4665 51.5452 1744.61
-80.9329 51.5452 1744.61
-81.3994 51.5452 1744.61
-81.8659 51.5452 1744.61
-82.3392 51.6959 1749.71
-82.807 51.6959 1749.71
-83.2845 51.8475 1754.84
-83.7427 51.6959 1749.71
-84.2353 52 1760
-84.7198 52.1534 1765.19
-85.1765 52 1760
-85.6805 52.3077 1770.41
-86.1905 52.619 1780.95
-86.6866 52.7761 1786.27
-87.1856 52.9341 1791.62
-87.6418 52.7761 1786.27
-88.1194 52.7761 1786.27
-88.6747 53.253 1802.41
-89.1843 53.4139 1807.85
-89.697 53.5758 1813.33
-90.1818 53.5758 1813.33
-90.6667 53.5758 1813.33
-91.1515 53.5758 1813.33
-91.6012 53.4139 1807.85
-92.0846 53.4139 1807.85
-92.568 53.4139 1807.85
-93.0514 53.4139 1807.85
-93.5347 53.4139 1807.85
-94.0181 53.4139 1807.85
-94.4578 53.253 1802.41
-94.9398 53.253 1802.41
-95.4217 53.253 1802.41
-95.9036 53.253 1802.41
-96.3855 53.253 1802.41
-96.8168 53.0931 1797
-97.3494 53.253 1802.41
-97.7778 53.0931 1797
-98.2583 53.0931 1797
-98.7387 53.0931 1797
-99.2192 53.0931 1797
-99.6997 53.0931 1797
-100.12 52.9341 1791.62
-100.599 52.9341 1791.62
-101.078 52.9341 1791.62
-101.557 52.9341 1791.62
-102.036 52.9341 1791.62
-102.583 53.0931 1797
-103.063 53.0931 1797
-103.473 52.9341 1791.62
-104.024 53.0931 1797
-104.505 53.0931 1797
-104.985 53.0931 1797
-105.465 53.0931 1797
-105.868 52.9341 1791.62
-106.347 52.9341 1791.62
-106.826 52.9341 1791.62
-107.305 52.9341 1791.62
-107.784 52.9341 1791.62
-108.263 52.9341 1791.62
-108.743 52.9341 1791.62
-109.134 52.7761 1786.27
-109.612 52.7761 1786.27
-110 52.619 1780.95
-110.476 52.619 1780.95
-110.861 52.4629 1775.67
-111.335 52.4629 1775.67
-111.716 52.3077 1770.41
-112.189 52.3077 1770.41
-112.281 51.6959 1749.71
-113.136 52.3077 1770.41
-113.412 52 1760
-113.982 52.1534 1765.19
-114.252 51.8475 1754.84
-114.721 51.8475 1754.84
-115.088 51.6959 1749.71
-115.66 51.8475 1754.84
-115.607 51.0983 1729.48
-116.598 51.8475 1754.84
-116.638 51.2464 1734.49
-117.209 51.3953 1739.53
-118.006 51.8475 1754.84
-118.588 52 1760
-118.382 51.0983 1729.48
-118.291 50.3704 1704.84
-119.08 50.8046 1719.54
-119.202 50.3704 1704.84
-119.658 50.3704 1704.84
-120 50.2273 1700
-120.455 50.2273 1700
-120.909 50.2273 1700
-121.364 50.2273 1700
-121.818 50.2273 1700
-122.273 50.2273 1700
-122.849 50.3704 1704.84
-123.305 50.3704 1704.84
-123.761 50.3704 1704.84
-124.217 50.3704 1704.84
-124.672 50.3704 1704.84
-125.128 50.3704 1704.84
-125.584 50.3704 1704.84
-126.04 50.3704 1704.84
-126.496 50.3704 1704.84
-126.952 50.3704 1704.84
-127.407 50.3704 1704.84
-127.863 50.3704 1704.84
-128.319 50.3704 1704.84
-128.775 50.3704 1704.84
-129.231 50.3704 1704.84
-129.687 50.3704 1704.84
-130.142 50.3704 1704.84
-130.598 50.3704 1704.84
-131.054 50.3704 1704.84
-131.51 50.3704 1704.84
-131.966 50.3704 1704.84
-132.422 50.3704 1704.84
-132.877 50.3704 1704.84
-133.333 50.3704 1704.84
-133.789 50.3704 1704.84
-134.4 50.5143 1709.71
-134.857 50.5143 1709.71
-135.314 50.5143 1709.71
-135.613 50.3704 1704.84
-135.909 50.2273 1700
-136.364 50.2273 1700
-136.657 50.085 1695.18
-136.629 49.6629 1680.9
-136.602 49.2479 1666.85
-137.047 49.2479 1666.85
-137.815 49.5238 1676.19
-138.263 49.5238 1676.19
-139.209 49.9435 1690.4
-140.171 50.3704 1704.84
-141.149 50.8046 1719.54
-142.145 51.2464 1734.49
-143.343 51.8475 1754.84
-144.379 52.3077 1770.41
-148.5 55.25 1870
-147.112 53.7386 1818.84
-148.431 54.4 1841.23
-148.712 54.2331 1835.58
-148.991 54.0673 1829.97
-149.48 54.0673 1829.97
-149.333 53.5758 1813.33
-149.818 53.5758 1813.33
-150.303 53.5758 1813.33
-151.003 53.7386 1818.84
-151.927 54.0673 1829.97
-152.862 54.4 1841.23
-154.734 55.4232 1875.86
-155.71 55.7729 1887.7
-159.213 57.9672 1961.97
-160.797 58.7375 1988.04
-161.6 58.9333 1994.67
-167.687 62.9181 2129.54
-167.018 62.0351 2099.65
-169.784 63.5971 2152.52
-157.292 54.4 1841.23
-158.266 54.7368 1852.63
-161.019 56.3057 1905.73
-154.854 51.6959 1749.71
-160.5 55.25 1870
-157.605 52.9341 1791.62
-158.318 53.0931 1797
-161.745 55.0779 1864.17
-166.842 58.1579 1968.42
-167.082 57.9672 1961.97
-172.778 61.3889 2077.78
-177.745 64.2909 2176
-183.602 67.7395 2292.72
-190.121 71.5789 2422.67
-194.477 73.9749 2503.77
-197.607 75.5556 2557.26
-203.022 78.5778 2659.56
-205.405 79.6396 2695.5
-207.273 80.3636 2720
-212.207 83.0047 2809.39
-167.407 54.5679 1846.91
-195.772 71.8699 2432.52
-163.014 51.2464 1734.49
-162.521 50.659 1714.61
-162.04 50.085 1695.18
-177.391 59.1304 2001.34
-161.56 49.2479 1666.85
-162.006 49.2479 1666.85
-161.543 48.7052 1648.48
-161.311 48.306 1634.97
-161.749 48.306 1634.97
-162.186 48.306 1634.97
-162.623 48.306 1634.97
-163.516 48.5714 1643.96
-164.42 48.8398 1653.04
-165.571 49.2479 1666.85
-167.232 49.9435 1690.4
-168.182 50.2273 1700
-174.833 53.7386 1818.84
-172.235 52 1760
-174.655 53.0931 1797
-189.619 61.1765 2070.59
-175.329 52.9341 1791.62
-176.096 53.0931 1797
-178.954 54.4 1841.23
-179.446 54.4 1841.23
-176.667 52.619 1780.95
-176.283 52.1534 1765.19
-175.906 51.6959 1749.71
-175.536 51.2464 1734.49
-174.9 50.659 1714.61
21.2245 52.0117 1744.61
20.758 52.0117 1744.61
20.5848 52.1637 1749.71
20.117 52.1637 1749.71
19.6491 52.1637 1749.71
19.4721 52.3167 1754.84
19.0029 52.3167 1754.84
18.5337 52.3167 1754.84
18.3529 52.4706 1760
17.8824 52.4706 1760
17.4118 52.4706 1760
16.9412 52.4706 1760
16.7552 52.6254 1765.19
16 52.4706 1760
15.8112 52.6254 1765.19
15.3392 52.6254 1765.19
14.8673 52.6254 1765.19
14.3953 52.6254 1765.19
14.2012 52.7811 1770.41
13.7278 52.7811 1770.41
13.2544 52.7811 1770.41
13.0564 52.9377 1775.67
12.5816 52.9377 1775.67
11.8343 52.7811 1770.41
11.632 52.9377 1775.67
11.1573 52.9377 1775.67
10.9524 53.0952 1780.95
10.4762 53.0952 1780.95
10 53.0952 1780.95
9.52381 53.0952 1780.95
9.04762 53.0952 1780.95
8.83582 53.2537 1786.27
8.35821 53.2537 1786.27
7.8806 53.2537 1786.27
7.40299 53.2537 1786.27
6.92537 53.2537 1786.27
6.70659 53.4132 1791.62
6.22754 53.4132 1791.62
5.7485 53.4132 1791.62
5.26946 53.4132 1791.62
5.3012 53.7349 1802.41
4.81928 53.7349 1802.41
4.08408 53.5736 1797
3.6036 53.5736 1797
3.37349 53.7349 1802.41
2.89157 53.7349 1802.41
2.40964 53.7349 1802.41
1.92771 53.7349 1802.41
1.69184 53.8973 1807.85
1.20846 53.8973 1807.85
0.725076 53.8973 1807.85
0.241692 53.8973 1807.85
-0 54.0606 1813.33
-0.484848 54.0606 1813.33
-0.969697 54.0606 1813.33
-1.45455 54.0606 1813.33
-1.93939 54.0606 1813.33
-2.18845 54.2249 1818.84
-2.67477 54.2249 1818.84
-3.16109 54.2249 1818.84
-3.64742 54.2249 1818.84
-3.90244 54.3902 1824.39
-4.39024 54.3902 1824.39
-4.87805 54.3902 1824.39
-5.36585 54.3902 1824.39
-5.85366 54.3902 1824.39
-6.34146 54.3902 1824.39
-7.05167 54.2249 1818.84
-7.53799 54.2249 1818.84
-7.80488 54.3902 1824.39
-8.07339 54.5566 1829.97
-9.42598 53.8973 1807.85
-9.90937 53.8973 1807.85
-10.8108 53.5736 1797
-11.497 53.4132 1791.62
-11.976 53.4132 1791.62
-12.4551 53.4132 1791.62
-13.1343 53.2537 1786.27
-13.6119 53.2537 1786.27
-14.0896 53.2537 1786.27
-14.5672 53.2537 1786.27
-15.0448 53.2537 1786.27
-15.7143 53.0952 1780.95
-16 53.2537 1786.27
-16.4776 53.2537 1786.27
-16.9552 53.2537 1786.27
-17.4328 53.2537 1786.27
-17.7246 53.4132 1791.62
-18.2036 53.4132 1791.62
-18.6826 53.4132 1791.62
-19.1617 53.4132 1791.62
-19.4595 53.5736 1797
-19.9399 53.5736 1797
-20.4204 53.5736 1797
-20.9009 53.5736 1797
-21.3814 53.5736 1797
-21.8619 53.5736 1797
-22.1687 53.7349 1802.41
-22.6506 53.7349 1802.41
-23.3033 53.5736 1797
-23.6145 53.7349 1802.41
-24.0964 53.7349 1802.41
-24.5783 53.7349 1802.41
-25.0602 53.7349 1802.41
-25.5422 53.7349 1802.41
-26.0241 53.7349 1802.41
-26.506 53.7349 1802.41
-26.988 53.7349 1802.41
-27.4699 53.7349 1802.41
-27.9518 53.7349 1802.41
-28.4337 53.7349 1802.41
-28.9157 53.7349 1802.41
-29.3976 53.7349 1802.41
-29.8795 53.7349 1802.41
-30.3614 53.7349 1802.41
-30.6949 53.8973 1807.85
-31.3253 53.7349 1802.41
-31.6616 53.8973 1807.85
-32.145 53.8973 1807.85
-32.4848 54.0606 1813.33
-32.9697 54.0606 1813.33
-33.3131 54.2249 1818.84
-33.7994 54.2249 1818.84
-34.2857 54.2249 1818.84
-34.772 54.2249 1818.84
-35.2584 54.2249 1818.84
-35.6098 54.3902 1824.39
-36.0976 54.3902 1824.39
-36.4526 54.5566 1829.97
-36.8098 54.7239 1835.58
-37.1692 54.8923 1841.23
-37.5309 55.0617 1846.91
-37.764 55.4037 1858.39
-38 55.75 1870
-38.239 56.1006 1881.76
-38.2166 56.8153 1905.73
-38.1935 57.5484 1930.32
-38.7097 57.5484 1930.32
-38.5574 58.4918 1961.97
-39.7419 57.5484 1930.32
-39.7386 58.3007 1955.56
-41.0256 57.1795 1917.95
-41.7834 56.8153 1905.73
-40 60.2703 2021.62
-42.8025 56.8153 1905.73
-41.9802 58.8779 1974.92
-43.3548 57.5484 1930.32
-44.4444 56.6349 1899.68
-44.7284 56.9968 1911.82
-45.7862 56.1006 1881.76
-46.9136 55.0617 1846.91
-47.5077 54.8923 1841.23
-48.1957 54.5566 1829.97
-48.7805 54.3902 1824.39
-49.2683 54.3902 1824.39
-49.848 54.2249 1818.84
-50.3343 54.2249 1818.84
-50.8207 54.2249 1818.84
-51.307 54.2249 1818.84
-51.7933 54.2249 1818.84
-52.3636 54.0606 1813.33
-52.8485 54.0606 1813.33
-53.3333 54.0606 1813.33
-53.8182 54.0606 1813.33
-54.303 54.0606 1813.33
-54.7879 54.0606 1813.33
-55.3474 53.8973 1807.85
-55.8308 53.8973 1807.85
-56.3142 53.8973 1807.85
-56.7976 53.8973 1807.85
-57.281 53.8973 1807.85
-57.7644 53.8973 1807.85
-58.2477 53.8973 1807.85
-58.7311 53.8973 1807.85
-59.2145 53.8973 1807.85
-59.6979 53.8973 1807.85
-60.1813 53.8973 1807.85
-60.6647 53.8973 1807.85
-61.148 53.8973 1807.85
-61.6314 53.8973 1807.85
-62.1148 53.8973 1807.85
-62.5982 53.8973 1807.85
-63.0816 53.8973 1807.85
-63.565 53.8973 1807.85
-64.0483 53.8973 1807.85
-64.5317 53.8973 1807.85
-65.0151 53.8973 1807.85
-65.4985 53.8973 1807.85
-66.0241 53.7349 1802.41
-66.506 53.7349 1802.41
-66.988 53.7349 1802.41
-67.4699 53.7349 1802.41
-67.9518 53.7349 1802.41
-68.4337 53.7349 1802.41
-68.9157 53.7349 1802.41
-69.3976 53.7349 1802.41
-69.8795 53.7349 1802.41
-70.3614 53.7349 1802.41
-70.8434 53.7349 1802.41
-71.3514 53.5736 1797
-71.8072 53.7349 1802.41
-72.381 53.0952 1780.95
-72.8994 52.7811 1770.41
-73.3728 52.7811 1770.41
-73.8643 52.6254 1765.19
-74.3363 52.6254 1765.19
-74.8083 52.6254 1765.19
-75.2941 52.4706 1760
-75.7647 52.4706 1760
-76.2353 52.4706 1760
-76.7347 52.0117 1744.61
-77.2012 52.0117 1744.61
-77.6676 52.0117 1744.61
-78.1341 52.0117 1744.61
-78.6006 52.0117 1744.61
-79.0671 52.0117 1744.61
-79.5335 52.0117 1744.61
-80 52.0117 1744.61
-80.4665 52.0117 1744.61
-80.9329 52.0117 1744.61
-81.3994 52.0117 1744.61
-81.8659 52.0117 1744.61
-82.3392 52.1637 1749.71
-82.807 52.1637 1749.71
-83.2749 52.1637 1749.71
-83.7537 52.3167 1754.84
-84.2353 52.4706 1760
-84.7198 52.6254 1765.19
-85.1917 52.6254 1765.19
-85.6637 52.6254 1765.19
-86.1905 53.0952 1780.95
-86.6469 52.9377 1775.67
-87.1856 53.4132 1791.62
-87.6418 53.2537 1786.27
-88.1928 53.7349 1802.41
-88.7009 53.8973 1807.85
-89.2121 54.0606 1813.33
-89.697 54.0606 1813.33
-90.1818 54.0606 1813.33
-90.6667 54.0606 1813.33
-91.1515 54.0606 1813.33
-91.6012 53.8973 1807.85
-92.0846 53.8973 1807.85
-92.568 53.8973 1807.85
-93.0514 53.8973 1807.85
-93.5347 53.8973 1807.85
-93.9759 53.7349 1802.41
-94.4578 53.7349 1802.41
-94.9398 53.7349 1802.41
-95.4217 53.7349 1802.41
-95.9036 53.7349 1802.41
-96.3855 53.7349 1802.41
-96.8675 53.7349 1802.41
-97.3494 53.7349 1802.41
-97.7778 53.5736 1797
-98.2583 53.5736 1797
-98.7387 53.5736 1797
-99.1617 53.4132 1791.62
-99.6407 53.4132 1791.62
-100.12 53.4132 1791.62
-100.599 53.4132 1791.62
-101.078 53.4132 1791.62
-101.557 53.4132 1791.62
-102.036 53.4132 1791.62
-102.515 53.4132 1791.62
-102.994 53.4132 1791.62
-103.473 53.4132 1791.62
-103.952 53.4132 1791.62
-104.505 53.5736 1797
-104.985 53.5736 1797
-105.465 53.5736 1797
-105.946 53.5736 1797
-106.347 53.4132 1791.62
-106.826 53.4132 1791.62
-107.305 53.4132 1791.62
-107.784 53.4132 1791.62
-108.179 53.2537 1786.27
-108.743 53.4132 1791.62
-109.222 53.4132 1791.62
-109.612 53.2537 1786.27
-110 53.0952 1780.95
-110.386 52.9377 1775.67
-110.861 52.9377 1775.67
-111.15 52.6254 1765.19
-111.437 52.3167 1754.84
-111.813 52.1637 1749.71
-112.471 52.4706 1760
-112.558 51.8605 1739.53
-113.023 51.8605 1739.53
-113.009 51.1175 1714.61
-113.563 51.2644 1719.54
-114.22 51.5607 1729.48
-114.985 52.0117 1744.61
-115.145 51.5607 1729.48
-115.71 51.7101 1734.49
-116.174 51.7101 1734.49
-116.744 51.8605 1739.53
-117.101 51.7101 1734.49
-117.565 51.7101 1734.49
-118.029 51.7101 1734.49
-117.835 50.8262 1704.84
-118.291 50.8262 1704.84
-118.746 50.8262 1704.84
-119.091 50.6818 1700
-119.658 50.8262 1704.84
-120 50.6818 1700
-120.455 50.6818 1700
-120.909 50.6818 1700
-121.364 50.6818 1700
-121.818 50.6818 1700
-122.393 50.8262 1704.84
-122.727 50.6818 1700
-123.305 50.8262 1704.84
-123.761 50.8262 1704.84
-124.217 50.8262 1704.84
-124.672 50.8262 1704.84
-125.128 50.8262 1704.84
-125.584 50.8262 1704.84
-126.04 50.8262 1704.84
-126.496 50.8262 1704.84
-126.952 50.8262 1704.84
-127.407 50.8262 1704.84
-127.863 50.8262 1704.84
-128.319 50.8262 1704.84
-128.775 50.8262 1704.84
-129.231 50.8262 1704.84
-129.687 50.8262 1704.84
-130.142 50.8262 1704.84
-130.598 50.8262 1704.84
-131.054 50.8262 1704.84
-131.51 50.8262 1704.84
-131.966 50.8262 1704.84
-132.422 50.8262 1704.84
-132.877 50.8262 1704.84
-133.333 50.8262 1704.84
-133.943 50.9714 1709.71
-134.556 51.1175 1714.61
-134.857 50.9714 1709.71
-135.314 50.9714 1709.71
-135.613 50.8262 1704.84
-135.909 50.6818 1700
-136.204 50.5382 1695.18
-136.818 50.6818 1700
-136.949 50.3955 1690.4
-137.079 50.1124 1680.9
-137.528 50.1124 1680.9
-137.815 49.972 1676.19
-138.101 49.8324 1671.51
-139.886 50.9714 1709.71
-140.171 50.8262 1704.84
-142.041 52.0117 1744.61
-143.059 52.4706 1760
-143.717 52.6254 1765.19
-144.762 53.0952 1780.95
-146.829 54.3902 1824.39
-148.785 55.5763 1864.17
-149.068 55.4037 1858.39
-148.293 54.3902 1824.39
-148.78 54.3902 1824.39
-149.48 54.5566 1829.97
-148.709 53.5736 1797
-148.776 53.2537 1786.27
-149.461 53.4132 1791.62
-150.574 53.8973 1807.85
-151.489 54.2249 1818.84
-153.313 55.2322 1852.63
-154.734 55.9248 1875.86
-154.766 55.5763 1864.17
-156.456 56.4557 1893.67
-161.067 59.4667 1994.67
-161.873 59.6656 2001.34
-161.32 58.8779 1974.92
-167.633 63.0389 2114.49
-168.511 63.2624 2121.99
-169.714 63.7143 2137.14
-155.916 53.5736 1797
-155.49 52.9377 1775.67
-160.757 56.2776 1887.7
-157.357 53.5736 1797
-156.46 52.6254 1765.19
-156.035 52.0117 1744.61
-161.745 55.5763 1864.17
-168.294 59.6656 2001.34
-166.515 58.1107 1949.19
-172.778 61.9444 2077.78
-179.188 65.8303 2208.12
-183.206 68.0916 2283.97
-191.475 73.1148 2452.46
-195.443 75.2743 2524.89
-200.702 78.2456 2624.56
-202.478 78.9381 2647.79
-205.973 80.724 2707.69
-209.032 82.212 2757.6
-214.095 84.9524 2849.52
-184.889 66.0741 2216.3
-164.51 52.9377 1775.67
-163.988 52.3167 1754.84
-163.237 51.5607 1729.48
-162.743 50.9714 1709.71
-162.26 50.3955 1690.4
-162.017 49.972 1676.19
-162.235 49.8324 1671.51
-161.543 49.146 1648.48
-161.534 48.8767 1639.45
-161.749 48.7432 1634.97
-162.186 48.7432 1634.97
-162.623 48.7432 1634.97
-163.288 48.8767 1639.45
-165.125 49.6936 1666.85
-165.571 49.6936 1666.85
-166.742 50.1124 1680.9
-169.452 51.4121 1724.5
-169.655 51.2644 1719.54
-171.429 52.0117 1744.61
-173.531 52.9377 1775.67
-174.286 53.0952 1780.95
-192.908 63.2624 2121.99
-187.023 59.6656 2001.34
-183.742 57.5484 1930.32
-177.057 53.5736 1797
-176.955 53.2537 1786.27
-177.433 53.2537 1786.27
-178.795 53.7349 1802.41
-173.636 50.6818 1700
-175.172 51.2644 1719.54
21.2245 52.4781 1744.61
20.758 52.4781 1744.61
20.5848 52.6316 1749.71
20.117 52.6316 1749.71
19.6491 52.6316 1749.71
19.4721 52.7859 1754.84
19.0029 52.7859 1754.84
18.5337 52.7859 1754.84
18.0645 52.7859 1754.84
17.8824 52.9412 1760
17.4118 52.9412 1760
16.9412 52.9412 1760
16.4706 52.9412 1760
16.2832 53.0973 1765.19
15.8112 53.0973 1765.19
15.3392 53.0973 1765.19
14.8673 53.0973 1765.19
14.3953 53.0973 1765.19
14.2012 53.2544 1770.41
13.4513 53.0973 1765.19
13.2544 53.2544 1770.41
13.0564 53.4125 1775.67
12.3077 53.2544 1770.41
11.8343 53.2544 1770.41
11.632 53.4125 1775.67
11.1573 53.4125 1775.67
10.6825 53.4125 1775.67
10.4762 53.5714 1780.95
10 53.5714 1780.95
9.52381 53.5714 1780.95
9.04762 53.5714 1780.95
8.83582 53.7313 1786.27
8.35821 53.7313 1786.27
7.8806 53.7313 1786.27
7.40299 53.7313 1786.27
6.92537 53.7313 1786.27
6.70659 53.8922 1791.62
6.22754 53.8922 1791.62
5.7485 53.8922 1791.62
5.52553 54.0541 1797
5.3012 54.2169 1802.41
4.81928 54.2169 1802.41
4.08408 54.0541 1797
3.85542 54.2169 1802.41
3.37349 54.2169 1802.41
2.89157 54.2169 1802.41
2.40964 54.2169 1802.41
1.92771 54.2169 1802.41
1.69184 54.3807 1807.85
1.20846 54.3807 1807.85
0.725076 54.3807 1807.85
0.241692 54.3807 1807.85
-0.241692 54.3807 1807.85
-0.484848 54.5455 1813.33
-0.969697 54.5455 1813.33
-1.45455 54.5455 1813.33
-1.93939 54.5455 1813.33
-2.18845 54.7112 1818.84
-2.67477 54.7112 1818.84
-3.16109 54.7112 1818.84
-3.64742 54.7112 1818.84
-3.90244 54.878 1824.39
-4.39024 54.878 1824.39
-4.87805 54.878 1824.39
-5.36585 54.878 1824.39
-5.85366 54.878 1824.39
-6.34146 54.878 1824.39
-6.82927 54.878 1824.39
-7.31707 54.878 1824.39
-7.5841 55.0459 1829.97
-8.29268 54.878 1824.39
-9.42598 54.3807 1807.85
-10.1205 54.2169 1802.41
-11.018 53.8922 1791.62
-11.497 53.8922 1791.62
-11.976 53.8922 1791.62
-12.4551 53.8922 1791.62
-13.1343 53.7313 1786.27
-13.6119 53.7313 1786.27
-14.0896 53.7313 1786.27
-14.5672 53.7313 1786.27
-15.0448 53.7313 1786.27
-15.5224 53.7313 1786.27
-16 53.7313 1786.27
-16.4776 53.7313 1786.27
-16.9552 53.7313 1786.27
-17.2455 53.8922 1791.62
-17.7246 53.8922 1791.62
-18.018 54.0541 1797
-18.6826 53.8922 1791.62
-18.979 54.0541 1797
-19.0937 54.3807 1807.85
-19.9399 54.0541 1797
-20.4204 54.0541 1797
-20.9009 54.0541 1797
-21.3814 54.0541 1797
-21.8619 54.0541 1797
-22.1687 54.2169 1802.41
-22.1277 54.7112 1818.84
-23.1325 54.2169 1802.41
-23.6145 54.2169 1802.41
-24.0964 54.2169 1802.41
-24.5783 54.2169 1802.41
-25.0602 54.2169 1802.41
-25.5422 54.2169 1802.41
-26.0241 54.2169 1802.41
-26.506 54.2169 1802.41
-26.988 54.2169 1802.41
-27.4699 54.2169 1802.41
-28.1081 54.0541 1797
-28.4337 54.2169 1802.41
-29.0691 54.0541 1797
-29.3976 54.2169 1802.41
-29.8795 54.2169 1802.41
-30.3614 54.2169 1802.41
-30.6949 54.3807 1807.85
-31.3253 54.2169 1802.41
-31.8072 54.2169 1802.41
-32.2892 54.2169 1802.41
-32.6284 54.3807 1807.85
-33.1118 54.3807 1807.85
-33.5952 54.3807 1807.85
-33.7994 54.7112 1818.84
-34.2857 54.7112 1818.84
-34.9091 54.5455 1813.33
-35.122 54.878 1824.39
-35.6098 54.878 1824.39
-36.0976 54.878 1824.39
-36.5854 54.878 1824.39
-36.9419 55.0459 1829.97
-37.3006 55.2147 1835.58
-37.7914 55.2147 1835.58
-38.0247 55.5556 1846.91
-38.3901 55.7276 1852.63
-38.5 56.25 1870
-39 56.25 1870
-38.8571 57.1429 1899.68
-39.4937 56.962 1893.67
-39.873 57.1429 1899.68
-40.5063 56.962 1893.67
-40.639 57.508 1911.82
-38.2131 61.8557 2056.36
-40.6557 59.0164 1961.97
-42.4127 57.1429 1899.68
-42.9206 57.1429 1899.68
-43.4286 57.1429 1899.68
-44.0506 56.962 1893.67
-45.109 56.0748 1864.17
-45.7143 55.9006 1858.39
-46.5231 55.3846 1841.23
-47.1166 55.2147 1835.58
-47.7064 55.0459 1829.97
-48.1957 55.0459 1829.97
-48.7805 54.878 1824.39
-49.2683 54.878 1824.39
-49.7561 54.878 1824.39
-50.3343 54.7112 1818.84
-50.8207 54.7112 1818.84
-51.307 54.7112 1818.84
-51.8788 54.5455 1813.33
-52.3636 54.5455 1813.33
-52.8485 54.5455 1813.33
-53.3333 54.5455 1813.33
-53.8182 54.5455 1813.33
-54.303 54.5455 1813.33
-54.7879 54.5455 1813.33
-55.3474 54.3807 1807.85
-55.8308 54.3807 1807.85
-56.3142 54.3807 1807.85
-56.7976 54.3807 1807.85
-57.281 54.3807 1807.85
-57.7644 54.3807 1807.85
-58.2477 54.3807 1807.85
-58.7311 54.3807 1807.85
-59.2145 54.3807 1807.85
-59.6979 54.3807 1807.85
-60.1813 54.3807 1807.85
-60.6647 54.3807 1807.85
-61.148 54.3807 1807.85
-61.6314 54.3807 1807.85
-62.1148 54.3807 1807.85
-62.5982 54.3807 1807.85
-63.0816 54.3807 1807.85
-63.565 54.3807 1807.85
-64.0483 54.3807 1807.85
-64.5317 54.3807 1807.85
-65.0151 54.3807 1807.85
-65.4985 54.3807 1807.85
-65.9819 54.3807 1807.85
-66.506 54.2169 1802.41
-66.988 54.2169 1802.41
-67.4699 54.2169 1802.41
-67.9518 54.2169 1802.41
-68.4337 54.2169 1802.41
-68.9157 54.2169 1802.41
-69.3976 54.2169 1802.41
-69.8795 54.2169 1802.41
-70.3614 54.2169 1802.41
-70.8434 54.2169 1802.41
-71.3514 54.0541 1797
-71.9288 53.4125 1775.67
-72.426 53.2544 1770.41
-72.8994 53.2544 1770.41
-73.3134 53.7313 1786.27
-73.8462 53.2544 1770.41
-74.3529 52.9412 1760
-74.8235 52.9412 1760
-75.2802 53.0973 1765.19
-75.7771 52.7859 1754.84
-76.2463 52.7859 1754.84
-76.7442 52.3256 1739.53
-77.2093 52.3256 1739.53
-77.6676 52.4781 1744.61
-78.1395 52.3256 1739.53
-78.6047 52.3256 1739.53
-79.0698 52.3256 1739.53
-79.5335 52.4781 1744.61
-80 52.4781 1744.61
-80.4665 52.4781 1744.61
-80.9329 52.4781 1744.61
-81.3994 52.4781 1744.61
-81.8659 52.4781 1744.61
-82.3324 52.4781 1744.61
-82.807 52.6316 1749.71
-83.2749 52.6316 1749.71
-83.7427 52.6316 1749.71
-84.2353 52.9412 1760
-84.7198 53.0973 1765.19
-85.2071 53.2544 1770.41
-85.7143 53.5714 1780.95
-86.1721 53.4125 1775.67
-86.6667 53.5714 1780.95
-87.1642 53.7313 1786.27
-87.6647 53.8922 1791.62
-88.2424 54.5455 1813.33
-88.7009 54.3807 1807.85
-89.2121 54.5455 1813.33
-89.7264 54.7112 1818.84
-90.2128 54.7112 1818.84
-90.6667 54.5455 1813.33
-91.1854 54.7112 1818.84
-91.6364 54.5455 1813.33
-92.1581 54.7112 1818.84
-92.568 54.3807 1807.85
-93.0514 54.3807 1807.85
-93.494 54.2169 1802.41
-93.9759 54.2169 1802.41
-94.4578 54.2169 1802.41
-94.9398 54.2169 1802.41
-95.4217 54.2169 1802.41
-95.8559 54.0541 1797
-96.3855 54.2169 1802.41
-96.8675 54.2169 1802.41
-97.2973 54.0541 1797
-97.7778 54.0541 1797
-98.2036 53.8922 1791.62
-98.6826 53.8922 1791.62
-99.1617 53.8922 1791.62
-99.6407 53.8922 1791.62
-100.12 53.8922 1791.62
-100.599 53.8922 1791.62
-101.078 53.8922 1791.62
-101.557 53.8922 1791.62
-102.036 53.8922 1791.62
-102.515 53.8922 1791.62
-102.994 53.8922 1791.62
-103.473 53.8922 1791.62
-103.952 53.8922 1791.62
-104.431 53.8922 1791.62
-104.91 53.8922 1791.62
-105.389 53.8922 1791.62
-105.868 53.8922 1791.62
-106.347 53.8922 1791.62
-106.826 53.8922 1791.62
-107.305 53.8922 1791.62
-107.784 53.8922 1791.62
-108.179 53.7313 1786.27
-108.657 53.7313 1786.27
-109.222 53.8922 1791.62
-109.701 53.8922 1791.62
-109.911 53.4125 1775.67
-110.386 53.4125 1775.67
-110.769 53.2544 1770.41
-111.059 52.9412 1760
-111.437 52.7859 1754.84
-111.536 52.1739 1734.49
-112 52.1739 1734.49
-112.464 52.1739 1734.49
-113.023 52.3256 1739.53
-113.009 51.5759 1714.61
-113.467 51.5759 1714.61
-113.926 51.5759 1714.61
-114.384 51.5759 1714.61
-114.943 51.7241 1719.54
-115.301 51.5759 1714.61
-115.759 51.5759 1714.61
-116.218 51.5759 1714.61
-116.782 51.7241 1719.54
-117.135 51.5759 1714.61
-117.593 51.5759 1714.61
-117.835 51.2821 1704.84
-118.4 51.4286 1709.71
-118.636 51.1364 1700
-119.091 51.1364 1700
-119.545 51.1364 1700
-120 51.1364 1700
-120.455 51.1364 1700
-120.909 51.1364 1700
-121.364 51.1364 1700
-121.818 51.1364 1700
-122.273 51.1364 1700
-122.849 51.2821 1704.84
-123.305 51.2821 1704.84
-123.636 51.1364 1700
-124.217 51.2821 1704.84
-124.672 51.2821 1704.84
-125.128 51.2821 1704.84
-125.584 51.2821 1704.84
-126.04 51.2821 1704.84
-126.496 51.2821 1704.84
-126.952 51.2821 1704.84
-127.407 51.2821 1704.84
-128.138 51.5759 1714.61
-128.319 51.2821 1704.84
-129.054 51.5759 1714.61
-129.231 51.2821 1704.84
-129.687 51.2821 1704.84
-130.142 51.2821 1704.84
-130.888 51.5759 1714.61
-131.494 51.7241 1719.54
-131.805 51.5759 1714.61
-132.264 51.5759 1714.61
-132.571 51.4286 1709.71
-133.029 51.4286 1709.71
-133.639 51.5759 1714.61
-133.943 51.4286 1709.71
-134.556 51.5759 1714.61
-135.014 51.5759 1714.61
-135.314 51.4286 1709.71
-135.613 51.2821 1704.84
-136.068 51.2821 1704.84
-136.524 51.2821 1704.84
-136.98 51.2821 1704.84
-136.949 50.8475 1690.4
-137.727 51.1364 1700
-137.853 50.8475 1690.4
-137.978 50.5618 1680.9
-139.599 51.5759 1714.61
-139.377 50.9915 1695.18
-141.574 52.4781 1744.61
-142.773 53.0973 1765.19
-143.81 53.5714 1780.95
-144.478 53.7313 1786.27
-144.955 53.7313 1786.27
-148.075 55.9006 1858.39
-148.148 55.5556 1846.91
-149.068 55.9006 1858.39
-148.923 55.3846 1841.23
-148.364 54.5455 1813.33
-148.024 53.8922 1791.62
-148.095 53.5714 1780.95
-148.166 53.2544 1770.41
-149.254 53.7313 1786.27
-150.574 54.3807 1807.85
-151.489 54.7112 1818.84
-152.638 55.2147 1835.58
-153.129 55.2147 1835.58
-154.303 55.7276 1852.63
-158.442 58.4416 1942.86
-160.53 59.6026 1981.46
-160.526 59.2105 1968.42
-160.787 59.0164 1961.97
-162.392 59.8007 1988.04
-168.826 64.0569 2129.54
-156.585 54.878 1824.39
-168.392 62.9371 2092.31
-160.762 57.1429 1899.68
-153.775 51.8732 1724.5
-153.6 51.4286 1709.71
-154.057 51.4286 1709.71
-157.389 53.4125 1775.67
-166.887 59.6026 1981.46
-168 60 1994.67
-171.586 62.069 2063.45
-178.598 66.4207 2208.12
-177.745 65.4545 2176
-188.16 72 2393.6
-190.569 73.1707 2432.52
-197.425 77.2532 2568.24
-202.311 80 2659.56
-204.126 80.7175 2683.41
-208.295 82.9493 2757.6
-212.701 85.3081 2836.02
-212.83 84.9057 2822.64
-216.812 86.9565 2890.82
-166.042 54.3807 1807.85
-164.985 53.4125 1775.67
-164.211 52.6316 1749.71
-163.458 51.8732 1724.5
-162.963 51.2821 1704.84
-162.247 50.5618 1680.9
-162.006 50.1393 1666.85
-161.768 49.7238 1653.04
-161.534 49.3151 1639.45
-161.749 49.1803 1634.97
-162.186 49.1803 1634.97
-162.623 49.1803 1634.97
-163.516 49.4505 1643.96
-164.187 49.5868 1648.48
-165.333 50 1662.22
-167.727 51.1364 1700
-168.182 51.1364 1700
-169.655 51.7241 1719.54
-171.163 52.3256 1739.53
-172.706 52.9412 1760
-174.286 53.5714 1780.95
-175.616 54.0541 1797
-176.677 54.3807 1807.85
-177.16 54.3807 1807.85
-182.93 57.3248 1905.73
-179.327 55.0459 1829.97
-183.949 57.3248 1905.73
-178.498 54.0541 1797
-176.093 52.4781 1744.61
-175.447 51.8732 1724.5
21.2245 52.9446 1744.61
20.758 52.9446 1744.61
20.5848 53.0994 1749.71
20.117 53.0994 1749.71
19.6491 53.0994 1749.71
19.4721 53.2551 1754.84
19.0029 53.2551 1754.84
18.5337 53.2551 1754.84
18.0645 53.2551 1754.84
17.5953 53.2551 1754.84
17.4118 53.4118 1760
16.9412 53.4118 1760
16.7552 53.5693 1765.19
16.2832 53.5693 1765.19
15.8112 53.5693 1765.19
15.3392 53.5693 1765.19
14.8673 53.5693 1765.19
14.3953 53.5693 1765.19
14.2012 53.7278 1770.41
13.7278 53.7278 1770.41
13.2544 53.7278 1770.41
12.7811 53.7278 1770.41
12.3077 53.7278 1770.41
12.1068 53.8872 1775.67
11.632 53.8872 1775.67
11.1573 53.8872 1775.67
10.9524 54.0476 1780.95
10.4762 54.0476 1780.95
10 54.0476 1780.95
9.52381 54.0476 1780.95
9.04762 54.0476 1780.95
8.83582 54.209 1786.27
8.35821 54.209 1786.27
7.8806 54.209 1786.27
7.40299 54.209 1786.27
6.92537 54.209 1786.27
6.70659 54.3713 1791.62
6.22754 54.3713 1791.62
5.7485 54.3713 1791.62
5.26946 54.3713 1791.62
4.79042 54.3713 1791.62
4.81928 54.6988 1802.41
4.08408 54.5345 1797
3.85542 54.6988 1802.41
3.37349 54.6988 1802.41
2.89157 54.6988 1802.41
2.40964 54.6988 1802.41
1.92771 54.6988 1802.41
1.69184 54.864 1807.85
1.20846 54.864 1807.85
0.725076 54.864 1807.85
0.241692 54.864 1807.85
-0.241692 54.864 1807.85
-0.484848 55.0303 1813.33
-0.969697 55.0303 1813.33
-1.45455 55.0303 1813.33
-1.93939 55.0303 1813.33
-2.18845 55.1976 1818.84
-2.67477 55.1976 1818.84
-3.16109 55.1976 1818.84
-3.64742 55.1976 1818.84
-3.90244 55.3659 1824.39
-4.39024 55.3659 1824.39
-4.87805 55.3659 1824.39
-5.36585 55.3659 1824.39
-5.85366 55.3659 1824.39
-6.34146 55.3659 1824.39
-6.82927 55.3659 1824.39
-7.31707 55.3659 1824.39
-7.5841 55.5352 1829.97
-8.51064 55.1976 1818.84
-9.63855 54.6988 1802.41
-10.1205 54.6988 1802.41
-10.6024 54.6988 1802.41
-11.0843 54.6988 1802.41
-11.5663 54.6988 1802.41
-12.2523 54.5345 1797
-12.9341 54.3713 1791.62
-13.6119 54.209 1786.27
-14.0896 54.209 1786.27
-14.5672 54.209 1786.27
-15.0448 54.209 1786.27
-15.5224 54.209 1786.27
-16 54.209 1786.27
-16.4776 54.209 1786.27
-16.9552 54.209 1786.27
-17.2455 54.3713 1791.62
-17.7246 54.3713 1791.62
-18.018 54.5345 1797
-18.4985 54.5345 1797
-18.7952 54.6988 1802.41
-19.0937 54.864 1807.85
-19.2097 55.1976 1818.84
-20.241 54.6988 1802.41
-20.9009 54.5345 1797
-21.3814 54.5345 1797
-21.8619 54.5345 1797
-22.1687 54.6988 1802.41
-21.5951 55.7055 1835.58
-22.9607 54.864 1807.85
-23.6145 54.6988 1802.41
-24.0964 54.6988 1802.41
-24.0729 55.1976 1818.84
-25.0602 54.6988 1802.41
-25.5422 54.6988 1802.41
-26.0241 54.6988 1802.41
-26.506 54.6988 1802.41
-26.988 54.6988 1802.41
-27.4699 54.6988 1802.41
-27.9518 54.6988 1802.41
-28.4337 54.6988 1802.41
-29.0691 54.5345 1797
-29.3976 54.6988 1802.41
-30.03 54.5345 1797
-30.3614 54.6988 1802.41
-30.8434 54.6988 1802.41
-31.4715 54.5345 1797
-31.8072 54.6988 1802.41
-32.145 54.864 1807.85
-32.7711 54.6988 1802.41
-33.1118 54.864 1807.85
-33.5952 54.864 1807.85
-34.0785 54.864 1807.85
-34.4242 55.0303 1813.33
-34.9091 55.0303 1813.33
-35.3939 55.0303 1813.33
-35.7447 55.1976 1818.84
-36.231 55.1976 1818.84
-36.5854 55.3659 1824.39
-37.0732 55.3659 1824.39
-37.4312 55.5352 1829.97
-37.9205 55.5352 1829.97
-38.2822 55.7055 1835.58
-38.5185 56.0494 1846.91
-39.1385 55.8769 1841.23
-39 56.75 1870
-40.1231 55.8769 1841.23
-40.4938 56.0494 1846.91
-40.6231 56.5732 1864.17
-40 58.2051 1917.95
-41.5 56.75 1870
-42.1184 56.5732 1864.17
-41.165 58.7702 1936.57
-42.884 56.9279 1875.86
-42.4437 58.3923 1924.12
-43.7736 57.1069 1881.76
-43.5897 58.2051 1917.95
-44.6688 57.2871 1887.7
-46.0308 55.8769 1841.23
-46.6258 55.7055 1835.58
-46.8111 56.2229 1852.63
-47.7064 55.5352 1829.97
-48.2927 55.3659 1824.39
-48.7805 55.3659 1824.39
-49.2683 55.3659 1824.39
-49.848 55.1976 1818.84
-50.3343 55.1976 1818.84
-50.8207 55.1976 1818.84
-51.3939 55.0303 1813.33
-51.8788 55.0303 1813.33
-52.3636 55.0303 1813.33
-52.8485 55.0303 1813.33
-53.3333 55.0303 1813.33
-53.8182 55.0303 1813.33
-54.303 55.0303 1813.33
-54.7879 55.0303 1813.33
-55.3474 54.864 1807.85
-55.8308 54.864 1807.85
-56.3142 54.864 1807.85
-56.7976 54.864 1807.85
-57.281 54.864 1807.85
-57.7644 54.864 1807.85
-58.2477 54.864 1807.85
-58.7311 54.864 1807.85
-59.2145 54.864 1807.85
-59.6979 54.864 1807.85
-60.1813 54.864 1807.85
-60.6647 54.864 1807.85
-61.148 54.864 1807.85
-61.6314 54.864 1807.85
-62.1148 54.864 1807.85
-62.5982 54.864 1807.85
-63.0816 54.864 1807.85
-63.565 54.864 1807.85
-64.0483 54.864 1807.85
-64.5317 54.864 1807.85
-65.0151 54.864 1807.85
-65.4985 54.864 1807.85
-66.0241 54.6988 1802.41
-66.506 54.6988 1802.41
-66.988 54.6988 1802.41
-67.4699 54.6988 1802.41
-67.9518 54.6988 1802.41
-68.4337 54.6988 1802.41
-68.9157 54.6988 1802.41
-69.3976 54.6988 1802.41
-69.8795 54.6988 1802.41
-70.3614 54.6988 1802.41
-70.8434 54.6988 1802.41
-71.3514 54.5345 1797
-71.9527 53.7278 1770.41
-72.426 53.7278 1770.41
-72.8783 53.8872 1775.67
-73.3923 53.5693 1765.19
-73.8643 53.5693 1765.19
-74.3195 53.7278 1770.41
-74.8235 53.4118 1760
-75.2941 53.4118 1760
-75.7771 53.2551 1754.84
-76.2463 53.2551 1754.84
-76.7442 52.7907 1739.53
-77.2093 52.7907 1739.53
-77.6744 52.7907 1739.53
-78.1395 52.7907 1739.53
-78.6047 52.7907 1739.53
-79.0698 52.7907 1739.53
-79.5349 52.7907 1739.53
-80 52.7907 1739.53
-80.4665 52.9446 1744.61
-80.9329 52.9446 1744.61
-81.3994 52.9446 1744.61
-81.8659 52.9446 1744.61
-82.3324 52.9446 1744.61
-82.7988 52.9446 1744.61
-83.2749 53.0994 1749.71
-83.7427 53.0994 1749.71
-84.2353 53.4118 1760
-84.7198 53.5693 1765.19
-85.2226 53.8872 1775.67
-85.6973 53.8872 1775.67
-86.2275 54.3713 1791.62
-86.747 54.6988 1802.41
-87.2727 55.0303 1813.33
-87.7812 55.1976 1818.84
-88.2927 55.3659 1824.39
-88.8073 55.5352 1829.97
-89.2966 55.5352 1829.97
-89.816 55.7055 1835.58
-90.3067 55.7055 1835.58
-90.6667 55.0303 1813.33
-91.1515 55.0303 1813.33
-91.6012 54.864 1807.85
-92.0846 54.864 1807.85
-92.568 54.864 1807.85
-93.0514 54.864 1807.85
-93.494 54.6988 1802.41
-93.9759 54.6988 1802.41
-94.4578 54.6988 1802.41
-94.9398 54.6988 1802.41
-95.4217 54.6988 1802.41
-95.9036 54.6988 1802.41
-96.3363 54.5345 1797
-96.8168 54.5345 1797
-97.2973 54.5345 1797
-97.7778 54.5345 1797
-98.2036 54.3713 1791.62
-98.6826 54.3713 1791.62
-99.1617 54.3713 1791.62
-99.6407 54.3713 1791.62
-100.12 54.3713 1791.62
-100.599 54.3713 1791.62
-101.078 54.3713 1791.62
-101.557 54.3713 1791.62
-102.036 54.3713 1791.62
-102.515 54.3713 1791.62
-102.994 54.3713 1791.62
-103.473 54.3713 1791.62
-103.952 54.3713 1791.62
-104.431 54.3713 1791.62
-104.91 54.3713 1791.62
-105.389 54.3713 1791.62
-105.868 54.3713 1791.62
-106.347 54.3713 1791.62
-106.826 54.3713 1791.62
-107.305 54.3713 1791.62
-107.701 54.209 1786.27
-108.179 54.209 1786.27
-108.571 54.0476 1780.95
-108.961 53.8872 1775.67
-109.436 53.8872 1775.67
-110.09 54.209 1786.27
-110.296 53.7278 1770.41
-110.678 53.5693 1765.19
-110.877 53.0994 1749.71
-111.529 53.4118 1760
-112 53.4118 1760
-111.908 52.4855 1729.48
-112.845 53.2551 1754.84
-112.644 52.1839 1719.54
-113.103 52.1839 1719.54
-113.371 51.8857 1709.71
-113.926 52.0344 1714.61
-114.286 51.8857 1709.71
-114.743 51.8857 1709.71
-115.2 51.8857 1709.71
-115.657 51.8857 1709.71
-116.011 51.7379 1704.84
-116.571 51.8857 1709.71
-116.923 51.7379 1704.84
-117.379 51.7379 1704.84
-117.727 51.5909 1700
-118.182 51.5909 1700
-118.636 51.5909 1700
-119.091 51.5909 1700
-119.545 51.5909 1700
-120 51.5909 1700
-120.455 51.5909 1700
-120.909 51.5909 1700
-121.364 51.5909 1700
-121.818 51.5909 1700
-122.273 51.5909 1700
-122.727 51.5909 1700
-123.182 51.5909 1700
-123.761 51.7379 1704.84
-124.217 51.7379 1704.84
-124.672 51.7379 1704.84
-125.128 51.7379 1704.84
-125.584 51.7379 1704.84
-126.04 51.7379 1704.84
-126.629 51.8857 1709.71
-127.086 51.8857 1709.71
-127.679 52.0344 1714.61
-128.138 52.0344 1714.61
-128.596 52.0344 1714.61
-128.914 51.8857 1709.71
-129.513 52.0344 1714.61
-129.829 51.8857 1709.71
-130.286 51.8857 1709.71
-131.329 52.4855 1729.48
-131.792 52.4855 1729.48
-132.254 52.4855 1729.48
-132.414 52.1839 1719.54
-132.874 52.1839 1719.54
-133.029 51.8857 1709.71
-133.486 51.8857 1709.71
-134.097 52.0344 1714.61
-134.556 52.0344 1714.61
-134.857 51.8857 1709.71
-135.314 51.8857 1709.71
-135.613 51.7379 1704.84
-136.068 51.7379 1704.84
-136.364 51.5909 1700
-136.98 51.7379 1704.84
-137.11 51.4448 1695.18
-137.401 51.2994 1690.4
-138.182 51.5909 1700
-138.305 51.2994 1690.4
-140.116 52.4855 1729.48
-141.287 53.0994 1749.71
-141.04 52.4855 1729.48
-143.522 54.209 1786.27
-143.245 53.5693 1765.19
-145.257 54.864 1807.85
-145.345 54.5345 1797
-147.864 56.2229 1852.63
-148.571 56.3975 1858.39
-148.642 56.0494 1846.91
-148.712 55.7055 1835.58
-147.748 54.5345 1797
-147.619 54.0476 1780.95
-147.692 53.7278 1770.41
-147.965 53.5693 1765.19
-148.843 53.8872 1775.67
-149.318 53.8872 1775.67
-150.631 54.5345 1797
-151.758 55.0303 1813.33
-152.905 55.5352 1829.97
-154.303 56.2229 1852.63
-155.737 56.9279 1875.86
-158.199 58.3923 1924.12
-159.481 58.961 1942.86
-160.787 59.541 1961.97
-166.713 63.4965 2092.31
-163.478 60.7358 2001.34
-155.21 54.3713 1791.62
-165.695 61.5593 2028.47
-155.714 54.0476 1780.95
-160.503 57.1069 1881.76
-153.39 51.7379 1704.84
-156.914 53.8872 1775.67
-160.246 55.8769 1841.23
-158.563 54.3713 1791.62
-158.571 54.0476 1780.95
-171.271 62.4055 2056.36
-180.075 68.015 2241.2
-180.674 68.015 2241.2
-190.82 74.4262 2452.46
-190.121 73.5223 2422.67
-199.476 79.3013 2613.1
-201.77 80.354 2647.79
-205.818 82.5455 2720
-207.123 82.9224 2732.42
-207.854 82.9224 2732.42
-211.589 84.8598 2796.26
-212.336 84.8598 2796.26
-167.631 55.8769 1841.23
-166.265 54.6988 1802.41
-165.207 53.7278 1770.41
-165.176 53.4118 1760
-165.396 53.2551 1754.84
-162.712 51.2994 1690.4
-162.235 50.7263 1671.51
-161.994 50.3047 1657.62
-161.534 49.7534 1639.45
-161.749 49.6175 1634.97
-162.186 49.6175 1634.97
-162.623 49.6175 1634.97
-163.288 49.7534 1639.45
-164.187 50.0275 1648.48
-165.333 50.4444 1662.22
-166.499 50.8683 1676.19
-168.433 51.7379 1704.84
-169.398 52.0344 1714.61
-170.899 52.6377 1734.49
-172.706 53.4118 1760
-174.85 54.3713 1791.62
-175.329 54.3713 1791.62
-176.386 54.6988 1802.41
-176.867 54.6988 1802.41
-184.258 58.5806 1930.32
-177.246 54.3713 1791.62
-176.855 53.8872 1775.67
-176.471 53.4118 1760
-176.941 53.4118 1760
-175.447 52.3343 1724.5
21.2245 53.4111 1744.61
20.758 53.4111 1744.61
20.5848 53.5673 1749.71
20.117 53.5673 1749.71
19.6491 53.5673 1749.71
19.1813 53.5673 1749.71
19.0029 53.7243 1754.84
18.5337 53.7243 1754.84
18.0645 53.7243 1754.84
17.5953 53.7243 1754.84
17.4118 53.8824 1760
16.9412 53.8824 1760
16.4706 53.8824 1760
16.2832 54.0413 1765.19
15.8112 54.0413 1765.19
15.3392 54.0413 1765.19
14.8673 54.0413 1765.19
14.3953 54.0413 1765.19
14.2012 54.2012 1770.41
13.4513 54.0413 1765.19
13.2544 54.2012 1770.41
12.7811 54.2012 1770.41
12.3077 54.2012 1770.41
12.1068 54.362 1775.67
11.632 54.362 1775.67
11.1573 54.362 1775.67
10.6825 54.362 1775.67
10.4762 54.5238 1780.95
10 54.5238 1780.95
9.52381 54.5238 1780.95
9.04762 54.5238 1780.95
8.57143 54.5238 1780.95
8.35821 54.6866 1786.27
7.8806 54.6866 1786.27
7.40299 54.6866 1786.27
6.92537 54.6866 1786.27
6.70659 54.8503 1791.62
6.22754 54.8503 1791.62
5.7485 54.8503 1791.62
5.26946 54.8503 1791.62
5.04505 55.015 1797
4.81928 55.1807 1802.41
4.33735 55.1807 1802.41
3.85542 55.1807 1802.41
3.37349 55.1807 1802.41
2.89157 55.1807 1802.41
2.40964 55.1807 1802.41
1.92771 55.1807 1802.41
1.44578 55.1807 1802.41
1.20846 55.3474 1807.85
0.725076 55.3474 1807.85
0.241692 55.3474 1807.85
-0.241692 55.3474 1807.85
-0.484848 55.5152 1813.33
-0.969697 55.5152 1813.33
-1.45455 55.5152 1813.33
-1.93939 55.5152 1813.33
-2.18845 55.6839 1818.84
-2.67477 55.6839 1818.84
-3.16109 55.6839 1818.84
-3.41463 55.8537 1824.39
-3.90244 55.8537 1824.39
-4.39024 55.8537 1824.39
-4.87805 55.8537 1824.39
-5.36585 55.8537 1824.39
-5.85366 55.8537 1824.39
-6.34146 55.8537 1824.39
-6.82927 55.8537 1824.39
-7.31707 55.8537 1824.39
-8.24242 55.5152 1813.33
-8.51064 55.6839 1818.84
-9.21212 55.5152 1813.33
-9.90937 55.3474 1807.85
-10.1818 55.5152 1813.33
-11.0843 55.1807 1802.41
-12.381 54.5238 1780.95
-12.4551 54.8503 1791.62
-12.9341 54.8503 1791.62
-13.6119 54.6866 1786.27
-14.0896 54.6866 1786.27
-14.5672 54.6866 1786.27
-15.0448 54.6866 1786.27
-15.3293 54.8503 1791.62
-16 54.6866 1786.27
-16.4776 54.6866 1786.27
-16.7665 54.8503 1791.62
-17.2455 54.8503 1791.62
-17.5375 55.015 1797
-18.018 55.015 1797
-18.3133 55.1807 1802.41
-18.7952 55.1807 1802.41
-18.9091 55.5152 1813.33
-18.8379 56.0245 1829.97
-19.696 55.6839 1818.84
-20.9009 55.015 1797
-21.2048 55.1807 1802.41
-20.7951 56.0245 1829.97
-22.1687 55.1807 1802.41
-22.6506 55.1807 1802.41
-20.4416 57.7918 1887.7
-23.6145 55.1807 1802.41
-24.0964 55.1807 1802.41
-24.5783 55.1807 1802.41
-25.0602 55.1807 1802.41
-25.5422 55.1807 1802.41
-26.0241 55.1807 1802.41
-26.1818 55.5152 1813.33
-26.988 55.1807 1802.41
-27.6276 55.015 1797
-28.1081 55.015 1797
-28.5886 55.015 1797
-28.9157 55.1807 1802.41
-29.5495 55.015 1797
-30.03 55.015 1797
-30.5105 55.015 1797
-30.8434 55.1807 1802.41
-31.3253 55.1807 1802.41
-31.8072 55.1807 1802.41
-32.2892 55.1807 1802.41
-32.7711 55.1807 1802.41
-33.253 55.1807 1802.41
-33.5952 55.3474 1807.85
-34.0785 55.3474 1807.85
-34.4242 55.5152 1813.33
-34.9091 55.5152 1813.33
-35.3939 55.5152 1813.33
-35.7447 55.6839 1818.84
-36.231 55.6839 1818.84
-36.7173 55.6839 1818.84
-37.0732 55.8537 1824.39
-37.561 55.8537 1824.39
-37.9205 56.0245 1829.97
-38.2822 56.1963 1835.58
-38.773 56.1963 1835.58
-39.2638 56.1963 1835.58
-39.7546 56.1963 1835.58
-40.2454 56.1963 1835.58
-40.4938 56.5432 1846.91
-40.1262 57.7918 1887.7
-40.5063 57.9747 1893.67
-41.8576 56.7183 1852.63
-41.1502 58.5304 1911.82
-42.6168 57.0717 1864.17
-41.1803 60.0656 1961.97
-43.5 57.25 1870
-44 57.25 1870
-44.164 57.7918 1887.7
-45.4321 56.5432 1846.91
-45.7143 56.8944 1858.39
-46.4198 56.5432 1846.91
-47.2171 56.0245 1829.97
-47.7064 56.0245 1829.97
-48.2927 55.8537 1824.39
-48.7805 55.8537 1824.39
-49.2683 55.8537 1824.39
-49.848 55.6839 1818.84
-50.3343 55.6839 1818.84
-50.8207 55.6839 1818.84
-51.3939 55.5152 1813.33
-51.7933 55.6839 1818.84
-52.3636 55.5152 1813.33
-52.8485 55.5152 1813.33
-53.3333 55.5152 1813.33
-53.8182 55.5152 1813.33
-54.303 55.5152 1813.33
-54.7879 55.5152 1813.33
-55.3474 55.3474 1807.85
-55.8308 55.3474 1807.85
-56.3142 55.3474 1807.85
-56.7976 55.3474 1807.85
-57.281 55.3474 1807.85
-57.7644 55.3474 1807.85
-58.2477 55.3474 1807.85
-58.7311 55.3474 1807.85
-59.2145 55.3474 1807.85
-59.6979 55.3474 1807.85
-60.1813 55.3474 1807.85
-60.6647 55.3474 1807.85
-61.148 55.3474 1807.85
-61.6314 55.3474 1807.85
-62.1148 55.3474 1807.85
-62.5982 55.3474 1807.85
-63.0816 55.3474 1807.85
-63.565 55.3474 1807.85
-64.0483 55.3474 1807.85
-64.5317 55.3474 1807.85
-65.0151 55.3474 1807.85
-65.4985 55.3474 1807.85
-66.0241 55.1807 1802.41
-66.506 55.1807 1802.41
-66.9486 55.3474 1807.85
-67.4699 55.1807 1802.41
-67.9518 55.1807 1802.41
-68.4337 55.1807 1802.41
-68.9157 55.1807 1802.41
-69.3976 55.1807 1802.41
-69.8795 55.1807 1802.41
-70.3904 55.015 1797
-70.8709 55.015 1797
-71.454 54.362 1775.67
-71.9527 54.2012 1770.41
-72.4484 54.0413 1765.19
-72.9204 54.0413 1765.19
-73.3923 54.0413 1765.19
-73.8824 53.8824 1760
-74.3529 53.8824 1760
-74.8235 53.8824 1760
-75.3079 53.7243 1754.84
-75.814 53.2558 1739.53
-76.2463 53.7243 1754.84
-76.7442 53.2558 1739.53
-77.2093 53.2558 1739.53
-77.6744 53.2558 1739.53
-78.1395 53.2558 1739.53
-78.6047 53.2558 1739.53
-79.0698 53.2558 1739.53
-79.5349 53.2558 1739.53
-80 53.2558 1739.53
-80.4651 53.2558 1739.53
-80.9329 53.4111 1744.61
-81.3994 53.4111 1744.61
-81.8659 53.4111 1744.61
-82.3392 53.5673 1749.71
-82.807 53.5673 1749.71
-83.2845 53.7243 1754.84
-83.7537 53.7243 1754.84
-84.2229 53.7243 1754.84
-84.7337 54.2012 1770.41
-85.2537 54.6866 1786.27
-85.6973 54.362 1775.67
-86.2275 54.8503 1791.62
-86.6667 54.5238 1780.95
-87.362 56.1963 1835.58
-87.8769 56.3692 1841.23
-88.3692 56.3692 1841.23
-88.8344 56.1963 1835.58
-89.4118 56.7183 1852.63
-89.7561 55.8537 1824.39
-90.3385 56.3692 1841.23
-90.9317 56.8944 1858.39
-91.1178 55.3474 1807.85
-91.6012 55.3474 1807.85
-92.0846 55.3474 1807.85
-92.568 55.3474 1807.85
-93.0514 55.3474 1807.85
-93.494 55.1807 1802.41
-94.0606 55.5152 1813.33
-94.4578 55.1807 1802.41
-94.9398 55.1807 1802.41
-95.4217 55.1807 1802.41
-95.8559 55.015 1797
-96.3363 55.015 1797
-96.8168 55.015 1797
-97.2973 55.015 1797
-97.7246 54.8503 1791.62
-98.2036 54.8503 1791.62
-98.6826 54.8503 1791.62
-99.1617 54.8503 1791.62
-99.6407 54.8503 1791.62
-100.12 54.8503 1791.62
-100.599 54.8503 1791.62
-101.078 54.8503 1791.62
-101.557 54.8503 1791.62
-102.036 54.8503 1791.62
-102.515 54.8503 1791.62
-102.994 54.8503 1791.62
-103.473 54.8503 1791.62
-103.952 54.8503 1791.62
-104.431 54.8503 1791.62
-104.91 54.8503 1791.62
-105.389 54.8503 1791.62
-105.868 54.8503 1791.62
-106.347 54.8503 1791.62
-106.826 54.8503 1791.62
-107.305 54.8503 1791.62
-107.784 54.8503 1791.62
-108.263 54.8503 1791.62
-108.402 54.2012 1770.41
-108.455 53.4111 1744.61
-109.436 54.362 1775.67
-109.822 54.2012 1770.41
-110.296 54.2012 1770.41
-110.588 53.8824 1760
-111.059 53.8824 1760
-111.072 53.1014 1734.49
-111.445 52.948 1729.48
-112.281 53.5673 1749.71
-112.184 52.6437 1719.54
-113.216 53.5673 1749.71
-113.199 52.7954 1724.5
-113.467 52.4928 1714.61
-113.829 52.3429 1709.71
-114.682 52.948 1729.48
-114.743 52.3429 1709.71
-115.301 52.4928 1714.61
-115.657 52.3429 1709.71
-116.011 52.1937 1704.84
-116.467 52.1937 1704.84
-116.923 52.1937 1704.84
-117.379 52.1937 1704.84
-117.727 52.0455 1700
-118.182 52.0455 1700
-118.636 52.0455 1700
-119.091 52.0455 1700
-119.545 52.0455 1700
-120 52.0455 1700
-120.455 52.0455 1700
-120.909 52.0455 1700
-121.364 52.0455 1700
-121.818 52.0455 1700
-122.273 52.0455 1700
-122.727 52.0455 1700
-123.182 52.0455 1700
-123.761 52.1937 1704.84
-124.217 52.1937 1704.84
-124.672 52.1937 1704.84
-125.128 52.1937 1704.84
-125.584 52.1937 1704.84
-126.04 52.1937 1704.84
-126.629 52.3429 1709.71
-127.086 52.3429 1709.71
-127.679 52.4928 1714.61
-128.138 52.4928 1714.61
-128.876 52.7954 1724.5
-129.195 52.6437 1719.54
-129.942 52.948 1729.48
-129.971 52.4928 1714.61
