-159.76 -2.64264 1797
-160.24 -2.64264 1797
-160.721 -2.64264 1797
-161.939 -2.66667 1813.33
-162.175 -2.65861 1807.85
-163.161 -2.67477 1818.84
-163.647 -2.67477 1818.84
-163.879 -2.66667 1813.33
-164.364 -2.66667 1813.33
-165.106 -2.67477 1818.84
-165.854 -2.68293 1824.39
-165.818 -2.66667 1813.33
-166.303 -2.66667 1813.33
-167.052 -2.67477 1818.84
-167.538 -2.67477 1818.84
-168.024 -2.67477 1818.84
-168.511 -2.67477 1818.84
-168.997 -2.67477 1818.84
-169.483 -2.67477 1818.84
-170.244 -2.68293 1824.39
-170.732 -2.68293 1824.39
-171.22 -2.68293 1824.39
-171.707 -2.68293 1824.39
-172.195 -2.68293 1824.39
-172.683 -2.68293 1824.39
-173.171 -2.68293 1824.39
-173.659 -2.68293 1824.39
-174.146 -2.68293 1824.39
-174.924 -2.69113 1829.97
-175.122 -2.68293 1824.39
-175.902 -2.69113 1829.97
-176.391 -2.69113 1829.97
-176.881 -2.69113 1829.97
-177.37 -2.69113 1829.97
-177.859 -2.69113 1829.97
-178.349 -2.69113 1829.97
-178.838 -2.69113 1829.97
-179.327 -2.69113 1829.97
-180.123 -2.69939 1835.58
-180.306 -2.69113 1829.97
-181.104 -2.69939 1835.58
-181.595 -2.69939 1835.58
20.6377 -2.08696 1734.49
20.1739 -2.08696 1734.49
20 -2.09302 1739.53
19.5349 -2.09302 1739.53
19.3586 -2.09913 1744.61
18.8921 -2.09913 1744.61
18.7135 -2.10526 1749.71
17.9592 -2.09913 1744.61
17.7778 -2.10526 1749.71
17.3099 -2.10526 1749.71
17.1261 -2.11144 1754.84
16.6569 -2.11144 1754.84
16.1877 -2.11144 1754.84
15.7185 -2.11144 1754.84
15.5294 -2.11765 1760
15.0588 -2.11765 1760
14.8673 -2.12389 1765.19
14.3953 -2.12389 1765.19
14.2012 -2.13018 1770.41
13.7278 -2.13018 1770.41
13.2544 -2.13018 1770.41
12.7811 -2.13018 1770.41
12.3077 -2.13018 1770.41
12.1068 -2.1365 1775.67
11.632 -2.1365 1775.67
11.1573 -2.1365 1775.67
10.6825 -2.1365 1775.67
10.4762 -2.14286 1780.95
10 -2.14286 1780.95
9.52381 -2.14286 1780.95
9.31343 -2.14925 1786.27
8.83582 -2.14925 1786.27
8.35821 -2.14925 1786.27
7.8806 -2.14925 1786.27
7.40299 -2.14925 1786.27
7.18563 -2.15569 1791.62
6.70659 -2.15569 1791.62
6.22754 -2.15569 1791.62
5.7485 -2.15569 1791.62
5.26946 -2.15569 1791.62
5.04505 -2.16216 1797
4.56456 -2.16216 1797
4.08408 -2.16216 1797
3.6036 -2.16216 1797
3.12312 -2.16216 1797
2.64264 -2.16216 1797
2.16216 -2.16216 1797
1.68168 -2.16216 1797
1.2012 -2.16216 1797
0.720721 -2.16216 1797
0.24024 -2.16216 1797
-0 -2.16867 1802.41
-0.481928 -2.16867 1802.41
-0.963855 -2.16867 1802.41
-1.44578 -2.16867 1802.41
-1.92771 -2.16867 1802.41
-2.40964 -2.16867 1802.41
-2.89157 -2.16867 1802.41
-3.37349 -2.16867 1802.41
-3.62538 -2.17523 1807.85
-4.10876 -2.17523 1807.85
-4.59215 -2.17523 1807.85
-5.07553 -2.17523 1807.85
-5.33333 -2.18182 1813.33
-5.81818 -2.18182 1813.33
-6.30303 -2.18182 1813.33
-6.78788 -2.18182 1813.33
-7.05167 -2.18845 1818.84
-7.53799 -2.18845 1818.84
-8.02432 -2.18845 1818.84
-8.29268 -2.19512 1824.39
-8.78049 -2.19512 1824.39
-8.83436 -2.20859 1835.58
-9.32515 -2.20859 1835.58
-8.9441 -2.23602 1858.39
-9.87654 -2.22222 1846.91
-9.71963 -2.24299 1864.17
-9.78056 -2.25705 1875.86
-8.48875 -2.31511 1924.12
-8.77419 -2.32258 1930.32
-8.36601 -2.35294 1955.56
-7.46667 -2.4 1994.67
-7.7592 -2.40803 2001.34
-7.56757 -2.43243 2021.62
-6.87285 -2.47423 2056.36
-6.15385 -2.51748 2092.31
-7.22222 -2.5 2077.78
-7.27273 -2.51748 2092.31
-7.32394 -2.53521 2107.04
-7.37589 -2.55319 2121.99
-7.94326 -2.55319 2121.99
-8.25623 -2.56228 2129.54
-8.82562 -2.56228 2129.54
-9.39502 -2.56228 2129.54
-9.71429 -2.57143 2137.14
-10.2857 -2.57143 2137.14
-10.8571 -2.57143 2137.14
-11.4286 -2.57143 2137.14
-12 -2.57143 2137.14
-12.5714 -2.57143 2137.14
-13.1429 -2.57143 2137.14
-13.4767 -2.58065 2144.8
-14.0502 -2.58065 2144.8
-14.6237 -2.58065 2144.8
-15.1971 -2.58065 2144.8
-15.7706 -2.58065 2144.8
-16.3441 -2.58065 2144.8
-16.9176 -2.58065 2144.8
-17.491 -2.58065 2144.8
-18.0645 -2.58065 2144.8
-18.638 -2.58065 2144.8
-18.9928 -2.58993 2152.52
-19.5683 -2.58993 2152.52
-20.1439 -2.58993 2152.52
-20.7194 -2.58993 2152.52
-21.295 -2.58993 2152.52
-21.8705 -2.58993 2152.52
-22.446 -2.58993 2152.52
-23.0216 -2.58993 2152.52
-23.5971 -2.58993 2152.52
-23.9711 -2.59928 2160.29
-24.5487 -2.59928 2160.29
-25.1264 -2.59928 2160.29
-25.704 -2.59928 2160.29
-26.2816 -2.59928 2160.29
-26.8592 -2.59928 2160.29
-27.4368 -2.59928 2160.29
-28.0144 -2.59928 2160.29
-28.4058 -2.6087 2168.12
-28.9855 -2.6087 2168.12
-29.5652 -2.6087 2168.12
-30.1449 -2.6087 2168.12
-30.7246 -2.6087 2168.12
-31.3043 -2.6087 2168.12
-31.8841 -2.6087 2168.12
-32.4638 -2.6087 2168.12
-33.0435 -2.6087 2168.12
-33.4545 -2.61818 2176
-34.0364 -2.61818 2176
-34.6182 -2.61818 2176
-35.2 -2.61818 2176
-35.7818 -2.61818 2176
-36.3636 -2.61818 2176
-36.9455 -2.61818 2176
-37.5273 -2.61818 2176
-38.1091 -2.61818 2176
-38.6909 -2.61818 2176
-39.2727 -2.61818 2176
-39.708 -2.62774 2183.94
-40.292 -2.62774 2183.94
-40.8759 -2.62774 2183.94
-41.4599 -2.62774 2183.94
-42.0438 -2.62774 2183.94
-42.6277 -2.62774 2183.94
-43.2117 -2.62774 2183.94
-43.663 -2.63736 2191.94
-44.2491 -2.63736 2191.94
-44.8352 -2.63736 2191.94
-45.4212 -2.63736 2191.94
-46.0073 -2.63736 2191.94
-46.5934 -2.63736 2191.94
-47.0588 -2.64706 2200
-47.6471 -2.64706 2200
-48.2353 -2.64706 2200
-48.8235 -2.64706 2200
-49.4118 -2.64706 2200
-50 -2.64706 2200
-50.5882 -2.64706 2200
-51.1765 -2.64706 2200
-51.7647 -2.64706 2200
-52.3529 -2.64706 2200
-52.8413 -2.65683 2208.12
-53.4317 -2.65683 2208.12
-54.0221 -2.65683 2208.12
-54.6125 -2.65683 2208.12
-55.203 -2.65683 2208.12
-55.7934 -2.65683 2208.12
-56.3838 -2.65683 2208.12
-56.9742 -2.65683 2208.12
-57.5646 -2.65683 2208.12
-58.155 -2.65683 2208.12
-58.7454 -2.65683 2208.12
-59.3358 -2.65683 2208.12
-59.9262 -2.65683 2208.12
-60.5882 -2.64706 2200
-61.2454 -2.63736 2191.94
-62.029 -2.6087 2168.12
-62.8571 -2.57143 2137.14
-63.5461 -2.55319 2121.99
-64.4444 -2.5 2077.78
-65.256 -2.45734 2042.32
-65.6552 -2.48276 2063.45
-66.4407 -2.44068 2028.47
-67.451 -2.35294 1955.56
-68.1672 -2.31511 1924.12
-68.7898 -2.29299 1905.73
-69.4006 -2.27129 1887.7
-70 -2.25 1870
-70.559 -2.23602 1858.39
-71.0836 -2.2291 1852.63
-71.6049 -2.22222 1846.91
-72.0988 -2.22222 1846.91
-72.5926 -2.22222 1846.91
-73.0864 -2.22222 1846.91
-73.5802 -2.22222 1846.91
-74.0741 -2.22222 1846.91
-74.5679 -2.22222 1846.91
-75.0617 -2.22222 1846.91
-75.5556 -2.22222 1846.91
-76.0494 -2.22222 1846.91
-76.5432 -2.22222 1846.91
-77.037 -2.22222 1846.91
-77.5309 -2.22222 1846.91
-78.0247 -2.22222 1846.91
-78.5185 -2.22222 1846.91
-79.0093 -2.2291 1852.63
-79.5046 -2.2291 1852.63
-80 -2.2291 1852.63
-80.4954 -2.2291 1852.63
-80.9907 -2.2291 1852.63
-81.4953 -2.24299 1864.17
-82 -2.25 1870
-82.5 -2.25 1870
-83.0189 -2.26415 1881.76
-83.522 -2.26415 1881.76
-84.0379 -2.27129 1887.7
-84.5426 -2.27129 1887.7
-85.0633 -2.27848 1893.67
-85.6051 -2.29299 1905.73
-86.1342 -2.30032 1911.82
-86.6242 -2.29299 1905.73
-87.1795 -2.30769 1917.95
-87.7419 -2.32258 1930.32
-88.2315 -2.31511 1924.12
-88.7742 -2.32258 1930.32
-89.2903 -2.32258 1930.32
-89.7749 -2.31511 1924.12
-90.2894 -2.31511 1924.12
-90.8738 -2.3301 1936.57
-91.4286 -2.33766 1942.86
-91.871 -2.32258 1930.32
-92.4272 -2.3301 1936.57
-92.987 -2.33766 1942.86
-93.4628 -2.3301 1936.57
-93.8907 -2.31511 1924.12
-94.359 -2.30769 1917.95
-94.9196 -2.31511 1924.12
-95.4341 -2.31511 1924.12
-95.8974 -2.30769 1917.95
-96.3057 -2.29299 1905.73
-96.7619 -2.28571 1899.68
-97.1609 -2.27129 1887.7
-97.6101 -2.26415 1881.76
-97.9439 -2.24299 1864.17
-98.4424 -2.24299 1864.17
-98.8235 -2.2291 1852.63
-99.2 -2.21538 1841.23
-99.6923 -2.21538 1841.23
-100.123 -2.20859 1835.58
-100.55 -2.20183 1829.97
-101.04 -2.20183 1829.97
-101.529 -2.20183 1829.97
-101.951 -2.19512 1824.39
-102.439 -2.19512 1824.39
-102.927 -2.19512 1824.39
-103.415 -2.19512 1824.39
-103.902 -2.19512 1824.39
-104.316 -2.18845 1818.84
-104.802 -2.18845 1818.84
-105.289 -2.18845 1818.84
-105.775 -2.18845 1818.84
-106.261 -2.18845 1818.84
-106.748 -2.18845 1818.84
-107.234 -2.18845 1818.84
-107.636 -2.18182 1813.33
-108.121 -2.18182 1813.33
-108.606 -2.18182 1813.33
-109.091 -2.18182 1813.33
-109.576 -2.18182 1813.33
-110.061 -2.18182 1813.33
-110.545 -2.18182 1813.33
-110.937 -2.17523 1807.85
-111.42 -2.17523 1807.85
-111.903 -2.17523 1807.85
-112.387 -2.17523 1807.85
-112.87 -2.17523 1807.85
-113.353 -2.17523 1807.85
-113.837 -2.17523 1807.85
-114.217 -2.16867 1802.41
-114.699 -2.16867 1802.41
-115.181 -2.16867 1802.41
-115.663 -2.16867 1802.41
-116.145 -2.16867 1802.41
-116.627 -2.16867 1802.41
-116.997 -2.16216 1797
-117.477 -2.16216 1797
-117.958 -2.16216 1797
-118.438 -2.16216 1797
-118.919 -2.16216 1797
-119.399 -2.16216 1797
-119.88 -2.16216 1797
-120.24 -2.15569 1791.62
-120.719 -2.15569 1791.62
-121.198 -2.15569 1791.62
-121.677 -2.15569 1791.62
-122.156 -2.15569 1791.62
-122.635 -2.15569 1791.62
-122.985 -2.14925 1786.27
-123.593 -2.15569 1791.62
-123.94 -2.14925 1786.27
-124.418 -2.14925 1786.27
-124.896 -2.14925 1786.27
-125.373 -2.14925 1786.27
-125.851 -2.14925 1786.27
-126.328 -2.14925 1786.27
-126.806 -2.14925 1786.27
-127.143 -2.14286 1780.95
-127.619 -2.14286 1780.95
-128.095 -2.14286 1780.95
-128.571 -2.14286 1780.95
-129.048 -2.14286 1780.95
-129.524 -2.14286 1780.95
-130 -2.14286 1780.95
-130.326 -2.1365 1775.67
-130.801 -2.1365 1775.67
-131.276 -2.1365 1775.67
-131.598 -2.13018 1770.41
-132.071 -2.13018 1770.41
-132.544 -2.13018 1770.41
-133.018 -2.13018 1770.41
-133.491 -2.13018 1770.41
-133.964 -2.13018 1770.41
-134.438 -2.13018 1770.41
-134.911 -2.13018 1770.41
-135.385 -2.13018 1770.41
-135.693 -2.12389 1765.19
-136.165 -2.12389 1765.19
-136.637 -2.12389 1765.19
-137.109 -2.12389 1765.19
-137.581 -2.12389 1765.19
-138.053 -2.12389 1765.19
-138.525 -2.12389 1765.19
-138.997 -2.12389 1765.19
-139.469 -2.12389 1765.19
-139.765 -2.11765 1760
-140.235 -2.11765 1760
-140.706 -2.11765 1760
-141.176 -2.11765 1760
-141.466 -2.11144 1754.84
-141.935 -2.11144 1754.84
-142.405 -2.11144 1754.84
-142.874 -2.11144 1754.84
-143.343 -2.11144 1754.84
-143.812 -2.11144 1754.84
-144.282 -2.11144 1754.84
-144.751 -2.11144 1754.84
-145.22 -2.11144 1754.84
-145.689 -2.11144 1754.84
-146.158 -2.11144 1754.84
-146.628 -2.11144 1754.84
-146.901 -2.10526 1749.71
-147.566 -2.11144 1754.84
-148.035 -2.11144 1754.84
-148.504 -2.11144 1754.84
-148.974 -2.11144 1754.84
-149.24 -2.10526 1749.71
-149.912 -2.11144 1754.84
-150.381 -2.11144 1754.84
-150.85 -2.11144 1754.84
-151.32 -2.11144 1754.84
-151.789 -2.11144 1754.84
-152.471 -2.11765 1760
-152.941 -2.11765 1760
-153.412 -2.11765 1760
-153.882 -2.11765 1760
-154.353 -2.11765 1760
-155.044 -2.12389 1765.19
-155.516 -2.12389 1765.19
-156.213 -2.13018 1770.41
-156.914 -2.1365 1775.67
-157.389 -2.1365 1775.67
-159.036 -2.16867 1802.41
-159.758 -2.17523 1807.85
-159.284 -2.14925 1786.27
-160 -2.15569 1791.62
-160.721 -2.16216 1797
-161.446 -2.16867 1802.41
-161.928 -2.16867 1802.41
-162.909 -2.18182 1813.33
-163.394 -2.18182 1813.33
-164.134 -2.18845 1818.84
-164.364 -2.18182 1813.33
-164.848 -2.18182 1813.33
-165.333 -2.18182 1813.33
-166.079 -2.18845 1818.84
-166.303 -2.18182 1813.33
-166.788 -2.18182 1813.33
-167.273 -2.18182 1813.33
-168.024 -2.18845 1818.84
-168.511 -2.18845 1818.84
-168.997 -2.18845 1818.84
-169.483 -2.18845 1818.84
-170.244 -2.19512 1824.39
-170.732 -2.19512 1824.39
-171.22 -2.19512 1824.39
-171.707 -2.19512 1824.39
-172.195 -2.19512 1824.39
-172.683 -2.19512 1824.39
-173.171 -2.19512 1824.39
-173.659 -2.19512 1824.39
-174.146 -2.19512 1824.39
-174.634 -2.19512 1824.39
-175.122 -2.19512 1824.39
-175.902 -2.20183 1829.97
-176.098 -2.19512 1824.39
-176.585 -2.19512 1824.39
-177.37 -2.20183 1829.97
-177.561 -2.19512 1824.39
-178.349 -2.20183 1829.97
-178.838 -2.20183 1829.97
-179.327 -2.20183 1829.97
-179.817 -2.20183 1829.97
-180.306 -2.20183 1829.97
-180.795 -2.20183 1829.97
-181.284 -2.20183 1829.97
20.6377 -1.62319 1734.49
20.1739 -1.62319 1734.49
19.7101 -1.62319 1734.49
19.5349 -1.62791 1739.53
19.0698 -1.62791 1739.53
18.6047 -1.62791 1739.53
18.7135 -1.63743 1749.71
18.2456 -1.63743 1749.71
17.7778 -1.63743 1749.71
17.3099 -1.63743 1749.71
17.1261 -1.64223 1754.84
16.6569 -1.64223 1754.84
16.1877 -1.64223 1754.84
15.7185 -1.64223 1754.84
15.2493 -1.64223 1754.84
15.0588 -1.64706 1760
14.8673 -1.65192 1765.19
14.3953 -1.65192 1765.19
13.9233 -1.65192 1765.19
13.7278 -1.6568 1770.41
12.9794 -1.65192 1765.19
12.7811 -1.6568 1770.41
12.3077 -1.6568 1770.41
12.1068 -1.66172 1775.67
11.632 -1.66172 1775.67
11.1573 -1.66172 1775.67
10.9524 -1.66667 1780.95
10.4762 -1.66667 1780.95
10 -1.66667 1780.95
9.52381 -1.66667 1780.95
9.31343 -1.67164 1786.27
8.83582 -1.67164 1786.27
8.35821 -1.67164 1786.27
7.8806 -1.67164 1786.27
7.66467 -1.67665 1791.62
6.92537 -1.67164 1786.27
6.70659 -1.67665 1791.62
6.22754 -1.67665 1791.62
5.7485 -1.67665 1791.62
5.26946 -1.67665 1791.62
5.04505 -1.68168 1797
4.56456 -1.68168 1797
4.08408 -1.68168 1797
3.6036 -1.68168 1797
3.12312 -1.68168 1797
2.64264 -1.68168 1797
2.16216 -1.68168 1797
1.68168 -1.68168 1797
1.44578 -1.68675 1802.41
0.720721 -1.68168 1797
0.24024 -1.68168 1797
-0 -1.68675 1802.41
-0.481928 -1.68675 1802.41
-0.963855 -1.68675 1802.41
-1.44578 -1.68675 1802.41
-1.92771 -1.68675 1802.41
-2.40964 -1.68675 1802.41
-2.89157 -1.68675 1802.41
-3.14199 -1.69184 1807.85
-3.62538 -1.69184 1807.85
-4.10876 -1.69184 1807.85
-4.59215 -1.69184 1807.85
-5.07553 -1.69184 1807.85
-5.55891 -1.69184 1807.85
-5.81818 -1.69697 1813.33
-6.30303 -1.69697 1813.33
-6.78788 -1.69697 1813.33
-7.27273 -1.69697 1813.33
-7.53799 -1.70213 1818.84
-8.02432 -1.70213 1818.84
-8.29268 -1.70732 1824.39
-8.78049 -1.70732 1824.39
-9.05199 -1.71254 1829.97
-9.54128 -1.71254 1829.97
-9.81595 -1.71779 1835.58
-8.77743 -1.75549 1875.86
-9.279 -1.75549 1875.86
-10.2181 -1.74455 1864.17
-8.94569 -1.78914 1911.82
-9.90476 -1.77778 1899.68
-9.06149 -1.8123 1936.57
-8.65574 -1.83607 1961.97
-8.47682 -1.8543 1981.46
-8.05369 -1.87919 2008.05
-7.37201 -1.91126 2042.32
-7.17241 -1.93103 2063.45
-7.47405 -1.93772 2070.59
-7.52613 -1.95122 2085.02
-7.32394 -1.97183 2107.04
-7.63251 -1.9788 2114.49
-7.94326 -1.98582 2121.99
-8.25623 -1.99288 2129.54
-8.82562 -1.99288 2129.54
-9.39502 -1.99288 2129.54
-9.71429 -2 2137.14
-10.2857 -2 2137.14
-10.8571 -2 2137.14
-11.4286 -2 2137.14
-12 -2 2137.14
-12.5714 -2 2137.14
-13.1429 -2 2137.14
-13.7143 -2 2137.14
-14.0502 -2.00717 2144.8
-14.6237 -2.00717 2144.8
-15.1971 -2.00717 2144.8
-15.7706 -2.00717 2144.8
-16.3441 -2.00717 2144.8
-16.9176 -2.00717 2144.8
-17.491 -2.00717 2144.8
-18.0645 -2.00717 2144.8
-18.638 -2.00717 2144.8
-18.9928 -2.01439 2152.52
-19.5683 -2.01439 2152.52
-20.1439 -2.01439 2152.52
-20.7194 -2.01439 2152.52
-21.295 -2.01439 2152.52
-21.8705 -2.01439 2152.52
-22.446 -2.01439 2152.52
-23.0216 -2.01439 2152.52
-23.5971 -2.01439 2152.52
-23.9711 -2.02166 2160.29
-24.5487 -2.02166 2160.29
-25.1264 -2.02166 2160.29
-25.704 -2.02166 2160.29
-26.2816 -2.02166 2160.29
-26.8592 -2.02166 2160.29
-27.4368 -2.02166 2160.29
-28.0144 -2.02166 2160.29
-28.4058 -2.02899 2168.12
-28.9855 -2.02899 2168.12
-29.5652 -2.02899 2168.12
-30.1449 -2.02899 2168.12
-30.7246 -2.02899 2168.12
-31.3043 -2.02899 2168.12
-31.8841 -2.02899 2168.12
-32.4638 -2.02899 2168.12
-33.0435 -2.02899 2168.12
-33.4545 -2.03636 2176
-34.0364 -2.03636 2176
-34.6182 -2.03636 2176
-35.2 -2.03636 2176
-35.7818 -2.03636 2176
-36.3636 -2.03636 2176
-36.9455 -2.03636 2176
-37.5273 -2.03636 2176
-38.1091 -2.03636 2176
-38.6909 -2.03636 2176
-39.2727 -2.03636 2176
-39.708 -2.0438 2183.94
-40.292 -2.0438 2183.94
-40.8759 -2.0438 2183.94
-41.4599 -2.0438 2183.94
-42.0438 -2.0438 2183.94
-42.6277 -2.0438 2183.94
-43.2117 -2.0438 2183.94
-43.7956 -2.0438 2183.94
-44.2491 -2.05128 2191.94
-44.8352 -2.05128 2191.94
-45.4212 -2.05128 2191.94
-46.0073 -2.05128 2191.94
-46.5934 -2.05128 2191.94
-47.1795 -2.05128 2191.94
-47.7656 -2.05128 2191.94
-48.2353 -2.05882 2200
-48.8235 -2.05882 2200
-49.4118 -2.05882 2200
-50 -2.05882 2200
-50.5882 -2.05882 2200
-51.1765 -2.05882 2200
-51.7647 -2.05882 2200
-52.3529 -2.05882 2200
-52.8413 -2.06642 2208.12
-53.4317 -2.06642 2208.12
-54.0221 -2.06642 2208.12
-54.6125 -2.06642 2208.12
-55.203 -2.06642 2208.12
-55.7934 -2.06642 2208.12
-56.3838 -2.06642 2208.12
-56.9742 -2.06642 2208.12
-57.5646 -2.06642 2208.12
-58.155 -2.06642 2208.12
-58.7454 -2.06642 2208.12
-59.3358 -2.06642 2208.12
-60 -2.05882 2200
-60.6593 -2.05128 2191.94
-61.3818 -2.03636 2176
-62.029 -2.02899 2168.12
-62.8571 -2 2137.14
-63.662 -1.97183 2107.04
-64.4983 -1.93772 2070.59
-65.3061 -1.90476 2035.37
-65.9459 -1.89189 2021.62
-66.7987 -1.84818 1974.92
-67.4919 -1.8241 1949.19
-68.1672 -1.80064 1924.12
-68.7898 -1.78344 1905.73
-69.4006 -1.76656 1887.7
-70 -1.75 1870
-70.559 -1.73913 1858.39
-71.0559 -1.73913 1858.39
-71.6049 -1.7284 1846.91
-72.1231 -1.72308 1841.23
-72.6154 -1.72308 1841.23
-73.1077 -1.72308 1841.23
-73.6 -1.72308 1841.23
-74.0923 -1.72308 1841.23
-74.5846 -1.72308 1841.23
-75.0617 -1.7284 1846.91
-75.5556 -1.7284 1846.91
-76.0494 -1.7284 1846.91
-76.5432 -1.7284 1846.91
-77.037 -1.7284 1846.91
-77.5309 -1.7284 1846.91
-78.0247 -1.7284 1846.91
-78.5185 -1.7284 1846.91
-79.0123 -1.7284 1846.91
-79.5062 -1.7284 1846.91
-80 -1.7284 1846.91
-80.4938 -1.7284 1846.91
-80.9907 -1.73375 1852.63
-81.4907 -1.73913 1858.39
-81.9938 -1.74455 1864.17
-82.4922 -1.74455 1864.17
-83 -1.75 1870
-83.5 -1.75 1870
-84.0125 -1.75549 1875.86
-84.5141 -1.75549 1875.86
-85.0473 -1.76656 1887.7
-85.5521 -1.76656 1887.7
-86.0759 -1.77215 1893.67
-86.6032 -1.77778 1899.68
-87.0886 -1.77215 1893.67
-87.6433 -1.78344 1905.73
-88.1529 -1.78344 1905.73
-88.6624 -1.78344 1905.73
-89.172 -1.78344 1905.73
-89.7125 -1.78914 1911.82
-90.2236 -1.78914 1911.82
-90.7006 -1.78344 1905.73
-91.246 -1.78914 1911.82
-91.7949 -1.79487 1917.95
-92.2684 -1.78914 1911.82
-92.7796 -1.78914 1911.82
-93.2063 -1.77778 1899.68
-93.8462 -1.79487 1917.95
-94.1772 -1.77215 1893.67
-94.7771 -1.78344 1905.73
-95.1899 -1.77215 1893.67
-95.746 -1.77778 1899.68
-96.1514 -1.76656 1887.7
-96.6038 -1.76101 1881.76
-97 -1.75 1870
-97.5 -1.75 1870
-97.8882 -1.73913 1858.39
-98.3282 -1.73375 1852.63
-98.7654 -1.7284 1846.91
-99.2 -1.72308 1841.23
-99.6319 -1.71779 1835.58
-100.123 -1.71779 1835.58
-100.55 -1.71254 1829.97
-101.04 -1.71254 1829.97
-101.529 -1.71254 1829.97
-101.951 -1.70732 1824.39
-102.439 -1.70732 1824.39
-102.927 -1.70732 1824.39
-103.415 -1.70732 1824.39
-103.902 -1.70732 1824.39
-104.39 -1.70732 1824.39
-104.878 -1.70732 1824.39
-105.289 -1.70213 1818.84
-105.775 -1.70213 1818.84
-106.261 -1.70213 1818.84
-106.748 -1.70213 1818.84
-107.234 -1.70213 1818.84
-107.72 -1.70213 1818.84
-108.207 -1.70213 1818.84
-108.606 -1.69697 1813.33
-109.091 -1.69697 1813.33
-109.576 -1.69697 1813.33
-110.061 -1.69697 1813.33
-110.545 -1.69697 1813.33
-111.03 -1.69697 1813.33
-111.42 -1.69184 1807.85
-111.903 -1.69184 1807.85
-112.387 -1.69184 1807.85
-112.87 -1.69184 1807.85
-113.353 -1.69184 1807.85
-113.837 -1.69184 1807.85
-114.32 -1.69184 1807.85
-114.699 -1.68675 1802.41
-115.181 -1.68675 1802.41
-115.663 -1.68675 1802.41
-116.145 -1.68675 1802.41
-116.627 -1.68675 1802.41
-117.108 -1.68675 1802.41
-117.477 -1.68168 1797
-117.958 -1.68168 1797
-118.438 -1.68168 1797
-118.919 -1.68168 1797
-119.399 -1.68168 1797
-119.88 -1.68168 1797
-120.36 -1.68168 1797
-120.719 -1.67665 1791.62
-121.198 -1.67665 1791.62
-121.677 -1.67665 1791.62
-122.156 -1.67665 1791.62
-122.635 -1.67665 1791.62
-123.114 -1.67665 1791.62
-123.593 -1.67665 1791.62
-123.94 -1.67164 1786.27
-124.418 -1.67164 1786.27
-124.896 -1.67164 1786.27
-125.373 -1.67164 1786.27
-125.851 -1.67164 1786.27
-126.328 -1.67164 1786.27
-126.806 -1.67164 1786.27
-127.143 -1.66667 1780.95
-127.761 -1.67164 1786.27
-128.095 -1.66667 1780.95
-128.571 -1.66667 1780.95
-129.048 -1.66667 1780.95
-129.524 -1.66667 1780.95
-130 -1.66667 1780.95
-130.476 -1.66667 1780.95
-130.952 -1.66667 1780.95
-131.276 -1.66172 1775.67
-131.751 -1.66172 1775.67
-132.071 -1.6568 1770.41
-132.544 -1.6568 1770.41
-133.018 -1.6568 1770.41
-133.491 -1.6568 1770.41
-133.964 -1.6568 1770.41
-134.438 -1.6568 1770.41
-134.911 -1.6568 1770.41
-135.385 -1.6568 1770.41
-135.693 -1.65192 1765.19
-136.165 -1.65192 1765.19
-136.637 -1.65192 1765.19
-137.109 -1.65192 1765.19
-137.581 -1.65192 1765.19
-138.053 -1.65192 1765.19
-138.525 -1.65192 1765.19
-138.997 -1.65192 1765.19
-139.469 -1.65192 1765.19
-139.941 -1.65192 1765.19
-140.235 -1.64706 1760
-140.706 -1.64706 1760
-141.176 -1.64706 1760
-141.647 -1.64706 1760
-141.935 -1.64223 1754.84
-142.405 -1.64223 1754.84
-142.874 -1.64223 1754.84
-143.343 -1.64223 1754.84
-143.812 -1.64223 1754.84
-144.282 -1.64223 1754.84
-144.751 -1.64223 1754.84
-145.22 -1.64223 1754.84
-145.689 -1.64223 1754.84
-145.965 -1.63743 1749.71
-146.628 -1.64223 1754.84
-146.901 -1.63743 1749.71
-147.368 -1.63743 1749.71
-147.836 -1.63743 1749.71
-148.304 -1.63743 1749.71
-148.772 -1.63743 1749.71
-149.24 -1.63743 1749.71
-149.708 -1.63743 1749.71
-150.381 -1.64223 1754.84
-150.85 -1.64223 1754.84
-151.32 -1.64223 1754.84
-151.789 -1.64223 1754.84
-152.258 -1.64223 1754.84
-152.941 -1.64706 1760
-153.196 -1.64223 1754.84
-153.882 -1.64706 1760
-154.353 -1.64706 1760
-154.824 -1.64706 1760
-155.516 -1.65192 1765.19
-155.988 -1.65192 1765.19
-156.686 -1.6568 1770.41
-157.389 -1.66172 1775.67
-158.095 -1.66667 1780.95
-158.571 -1.66667 1780.95
-159.284 -1.67164 1786.27
-160 -1.67665 1791.62
-160.721 -1.68168 1797
-161.201 -1.68168 1797
-161.928 -1.68675 1802.41
-162.41 -1.68675 1802.41
-163.142 -1.69184 1807.85
-163.879 -1.69697 1813.33
-164.364 -1.69697 1813.33
-164.592 -1.69184 1807.85
-165.333 -1.69697 1813.33
-165.818 -1.69697 1813.33
-166.303 -1.69697 1813.33
-166.788 -1.69697 1813.33
-167.273 -1.69697 1813.33
-167.758 -1.69697 1813.33
-168.242 -1.69697 1813.33
-168.997 -1.70213 1818.84
-169.483 -1.70213 1818.84
-169.97 -1.70213 1818.84
-170.456 -1.70213 1818.84
-171.22 -1.70732 1824.39
-171.707 -1.70732 1824.39
-172.195 -1.70732 1824.39
-172.683 -1.70732 1824.39
-173.171 -1.70732 1824.39
-173.659 -1.70732 1824.39
-174.146 -1.70732 1824.39
-174.634 -1.70732 1824.39
-175.122 -1.70732 1824.39
-175.61 -1.70732 1824.39
-176.098 -1.70732 1824.39
-176.585 -1.70732 1824.39
-177.073 -1.70732 1824.39
-177.561 -1.70732 1824.39
-178.049 -1.70732 1824.39
-178.838 -1.71254 1829.97
-179.327 -1.71254 1829.97
-179.817 -1.71254 1829.97
-180.306 -1.71254 1829.97
-180.795 -1.71254 1829.97
-181.284 -1.71254 1829.97
20.6377 -1.15942 1734.49
20.1739 -1.15942 1734.49
20 -1.16279 1739.53
19.5349 -1.16279 1739.53
19.3586 -1.16618 1744.61
18.6047 -1.16279 1739.53
18.4257 -1.16618 1744.61
18.2456 -1.16959 1749.71
17.4927 -1.16618 1744.61
17.3099 -1.16959 1749.71
17.1261 -1.17302 1754.84
16.6569 -1.17302 1754.84
16.1877 -1.17302 1754.84
15.7185 -1.17302 1754.84
15.2493 -1.17302 1754.84
15.3392 -1.17994 1765.19
14.8673 -1.17994 1765.19
14.3953 -1.17994 1765.19
13.9233 -1.17994 1765.19
13.7278 -1.18343 1770.41
13.2544 -1.18343 1770.41
12.7811 -1.18343 1770.41
12.3077 -1.18343 1770.41
12.1068 -1.18694 1775.67
11.632 -1.18694 1775.67
11.1573 -1.18694 1775.67
10.9524 -1.19048 1780.95
10.4762 -1.19048 1780.95
10 -1.19048 1780.95
9.52381 -1.19048 1780.95
9.31343 -1.19403 1786.27
8.83582 -1.19403 1786.27
8.35821 -1.19403 1786.27
7.8806 -1.19403 1786.27
7.40299 -1.19403 1786.27
7.18563 -1.1976 1791.62
6.70659 -1.1976 1791.62
6.22754 -1.1976 1791.62
5.7485 -1.1976 1791.62
5.52553 -1.2012 1797
5.04505 -1.2012 1797
4.56456 -1.2012 1797
4.08408 -1.2012 1797
3.6036 -1.2012 1797
3.12312 -1.2012 1797
2.64264 -1.2012 1797
2.16216 -1.2012 1797
1.92771 -1.20482 1802.41
1.44578 -1.20482 1802.41
0.720721 -1.2012 1797
0.24024 -1.2012 1797
-0 -1.20482 1802.41
-0.481928 -1.20482 1802.41
-0.963855 -1.20482 1802.41
-1.44578 -1.20482 1802.41
-1.92771 -1.20482 1802.41
-2.40964 -1.20482 1802.41
-2.89157 -1.20482 1802.41
-3.14199 -1.20846 1807.85
-3.62538 -1.20846 1807.85
-4.10876 -1.20846 1807.85
-4.59215 -1.20846 1807.85
-5.07553 -1.20846 1807.85
-5.55891 -1.20846 1807.85
-5.81818 -1.21212 1813.33
-6.30303 -1.21212 1813.33
-6.78788 -1.21212 1813.33
-7.27273 -1.21212 1813.33
-7.53799 -1.21581 1818.84
-8.02432 -1.21581 1818.84
-8.29268 -1.21951 1824.39
-8.78049 -1.21951 1824.39
-9.05199 -1.22324 1829.97
-9.54128 -1.22324 1829.97
-9.81595 -1.22699 1835.58
-10.0923 -1.23077 1841.23
-10.3704 -1.23457 1846.91
-10.2181 -1.24611 1864.17
-9.84227 -1.26183 1887.7
-9.68153 -1.27389 1905.73
-8.83117 -1.2987 1942.86
-8.18482 -1.32013 1974.92
-7.51678 -1.34228 2008.05
-8.29431 -1.33779 2001.34
-8.10811 -1.35135 2021.62
-7.42268 -1.37457 2056.36
-7.97251 -1.37457 2056.36
-7.77778 -1.38889 2077.78
-7.83217 -1.3986 2092.31
-7.88732 -1.40845 2107.04
-8.19788 -1.41343 2114.49
-8.51064 -1.41844 2121.99
-8.82562 -1.42349 2129.54
-9.39502 -1.42349 2129.54
-9.96441 -1.42349 2129.54
-10.2857 -1.42857 2137.14
-10.8571 -1.42857 2137.14
-11.4286 -1.42857 2137.14
-12 -1.42857 2137.14
-12.5714 -1.42857 2137.14
-13.1429 -1.42857 2137.14
-13.7143 -1.42857 2137.14
-14.0502 -1.43369 2144.8
-14.6237 -1.43369 2144.8
-15.1971 -1.43369 2144.8
-15.7706 -1.43369 2144.8
-16.3441 -1.43369 2144.8
-16.9176 -1.43369 2144.8
-17.491 -1.43369 2144.8
-18.0645 -1.43369 2144.8
-18.638 -1.43369 2144.8
-19.2115 -1.43369 2144.8
-19.5683 -1.43885 2152.52
-20.1439 -1.43885 2152.52
-20.7194 -1.43885 2152.52
-21.295 -1.43885 2152.52
-21.8705 -1.43885 2152.52
-22.446 -1.43885 2152.52
-23.0216 -1.43885 2152.52
-23.5971 -1.43885 2152.52
-24.1727 -1.43885 2152.52
-24.5487 -1.44404 2160.29
-25.1264 -1.44404 2160.29
-25.704 -1.44404 2160.29
-26.2816 -1.44404 2160.29
-26.8592 -1.44404 2160.29
-27.4368 -1.44404 2160.29
-28.0144 -1.44404 2160.29
-28.4058 -1.44928 2168.12
-28.9855 -1.44928 2168.12
-29.5652 -1.44928 2168.12
-30.1449 -1.44928 2168.12
-30.7246 -1.44928 2168.12
-31.3043 -1.44928 2168.12
-31.8841 -1.44928 2168.12
-32.4638 -1.44928 2168.12
-33.0435 -1.44928 2168.12
-33.4545 -1.45455 2176
-34.0364 -1.45455 2176
-34.6182 -1.45455 2176
-35.2 -1.45455 2176
-35.7818 -1.45455 2176
-36.3636 -1.45455 2176
-36.9455 -1.45455 2176
-37.5273 -1.45455 2176
-38.1091 -1.45455 2176
-38.6909 -1.45455 2176
-39.2727 -1.45455 2176
-39.708 -1.45985 2183.94
-40.292 -1.45985 2183.94
-40.8759 -1.45985 2183.94
-41.4599 -1.45985 2183.94
-42.0438 -1.45985 2183.94
-42.6277 -1.45985 2183.94
-43.2117 -1.45985 2183.94
-43.663 -1.4652 2191.94
-44.2491 -1.4652 2191.94
-44.8352 -1.4652 2191.94
-45.4212 -1.4652 2191.94
-46.0073 -1.4652 2191.94
-46.5934 -1.4652 2191.94
-47.1795 -1.4652 2191.94
-47.7656 -1.4652 2191.94
-48.2353 -1.47059 2200
-48.8235 -1.47059 2200
-49.4118 -1.47059 2200
-50 -1.47059 2200
-50.5882 -1.47059 2200
-51.1765 -1.47059 2200
-51.7647 -1.47059 2200
-52.3529 -1.47059 2200
-52.8413 -1.47601 2208.12
-53.4317 -1.47601 2208.12
-54.0221 -1.47601 2208.12
-54.6125 -1.47601 2208.12
-55.203 -1.47601 2208.12
-55.7934 -1.47601 2208.12
-56.3838 -1.47601 2208.12
-56.9742 -1.47601 2208.12
-57.5646 -1.47601 2208.12
-58.155 -1.47601 2208.12
-58.7454 -1.47601 2208.12
-59.4118 -1.47059 2200
-60 -1.47059 2200
-60.7299 -1.45985 2183.94
-61.4493 -1.44928 2168.12
-62.1583 -1.43885 2152.52
-62.9181 -1.42349 2129.54
-63.7193 -1.40351 2099.65
-64.4983 -1.38408 2070.59
-65.3061 -1.36054 2035.37
-65.9933 -1.3468 2014.81
-66.7987 -1.32013 1974.92
-67.4919 -1.30293 1949.19
-68.2051 -1.28205 1917.95
-68.8254 -1.26984 1899.68
-69.434 -1.25786 1881.76
-69.9371 -1.25786 1881.76
-70.559 -1.24224 1858.39
-71.1111 -1.23457 1846.91
-71.6049 -1.23457 1846.91
-72.1231 -1.23077 1841.23
-72.6154 -1.23077 1841.23
-73.1077 -1.23077 1841.23
-73.6 -1.23077 1841.23
-74.0923 -1.23077 1841.23
-74.5846 -1.23077 1841.23
-75.0769 -1.23077 1841.23
-75.5692 -1.23077 1841.23
-76.0494 -1.23457 1846.91
-76.5538 -1.23077 1841.23
-77.037 -1.23457 1846.91
-77.5309 -1.23457 1846.91
-78.0247 -1.23457 1846.91
-78.5185 -1.23457 1846.91
-79.0123 -1.23457 1846.91
-79.5062 -1.23457 1846.91
-80 -1.23457 1846.91
-80.4938 -1.23457 1846.91
-80.9877 -1.23457 1846.91
-81.4861 -1.23839 1852.63
-81.9814 -1.23839 1852.63
-82.4845 -1.24224 1858.39
-82.9814 -1.24224 1858.39
-83.4783 -1.24224 1858.39
-83.9875 -1.24611 1864.17
-84.5 -1.25 1870
-85 -1.25 1870
-85.5 -1.25 1870
-86.0188 -1.25392 1875.86
-86.5204 -1.25392 1875.86
-87.044 -1.25786 1881.76
-87.571 -1.26183 1887.7
-88.0757 -1.26183 1887.7
-88.5804 -1.26183 1887.7
-89.0852 -1.26183 1887.7
-89.5597 -1.25786 1881.76
-90.0946 -1.26183 1887.7
-90.6329 -1.26582 1893.67
-91.1392 -1.26582 1893.67
-91.6456 -1.26582 1893.67
-92.1519 -1.26582 1893.67
-92.6582 -1.26582 1893.67
-93.1646 -1.26582 1893.67
-93.7143 -1.26984 1899.68
-94.1772 -1.26582 1893.67
-94.6372 -1.26183 1887.7
-95.047 -1.25392 1875.86
-95.5975 -1.25786 1881.76
-96.0502 -1.25392 1875.86
-96.5 -1.25 1870
-96.947 -1.24611 1864.17
-97.3913 -1.24224 1858.39
-97.8328 -1.23839 1852.63
-98.2716 -1.23457 1846.91
-98.7077 -1.23077 1841.23
-99.2 -1.23077 1841.23
-99.6319 -1.22699 1835.58
-100.123 -1.22699 1835.58
-100.55 -1.22324 1829.97
-101.04 -1.22324 1829.97
-101.529 -1.22324 1829.97
-102.018 -1.22324 1829.97
-102.439 -1.21951 1824.39
-102.927 -1.21951 1824.39
-103.415 -1.21951 1824.39
-103.902 -1.21951 1824.39
-104.39 -1.21951 1824.39
-104.878 -1.21951 1824.39
-105.366 -1.21951 1824.39
-105.775 -1.21581 1818.84
-106.261 -1.21581 1818.84
-106.748 -1.21581 1818.84
-107.234 -1.21581 1818.84
-107.72 -1.21581 1818.84
-108.207 -1.21581 1818.84
-108.693 -1.21581 1818.84
-109.091 -1.21212 1813.33
-109.576 -1.21212 1813.33
-110.061 -1.21212 1813.33
-110.545 -1.21212 1813.33
-111.03 -1.21212 1813.33
-111.515 -1.21212 1813.33
-111.903 -1.20846 1807.85
-112.387 -1.20846 1807.85
-112.87 -1.20846 1807.85
-113.353 -1.20846 1807.85
-113.837 -1.20846 1807.85
-114.32 -1.20846 1807.85
-114.699 -1.20482 1802.41
-115.181 -1.20482 1802.41
-115.663 -1.20482 1802.41
-116.145 -1.20482 1802.41
-116.627 -1.20482 1802.41
-117.108 -1.20482 1802.41
-117.59 -1.20482 1802.41
-117.958 -1.2012 1797
-118.438 -1.2012 1797
-118.919 -1.2012 1797
-119.399 -1.2012 1797
-119.88 -1.2012 1797
-120.36 -1.2012 1797
-120.841 -1.2012 1797
-121.198 -1.1976 1791.62
-121.677 -1.1976 1791.62
-122.156 -1.1976 1791.62
-122.635 -1.1976 1791.62
-123.114 -1.1976 1791.62
-123.593 -1.1976 1791.62
-124.072 -1.1976 1791.62
-124.418 -1.19403 1786.27
-124.896 -1.19403 1786.27
-125.373 -1.19403 1786.27
-125.851 -1.19403 1786.27
-126.328 -1.19403 1786.27
-126.806 -1.19403 1786.27
-127.284 -1.19403 1786.27
-127.761 -1.19403 1786.27
-128.095 -1.19048 1780.95
-128.571 -1.19048 1780.95
-129.048 -1.19048 1780.95
-129.524 -1.19048 1780.95
-130 -1.19048 1780.95
-130.476 -1.19048 1780.95
-130.952 -1.19048 1780.95
-131.429 -1.19048 1780.95
-131.598 -1.18343 1770.41
-132.226 -1.18694 1775.67
-132.544 -1.18343 1770.41
-133.018 -1.18343 1770.41
-133.491 -1.18343 1770.41
-133.964 -1.18343 1770.41
-134.438 -1.18343 1770.41
-134.911 -1.18343 1770.41
-135.385 -1.18343 1770.41
-135.693 -1.17994 1765.19
-136.165 -1.17994 1765.19
-136.637 -1.17994 1765.19
-137.109 -1.17994 1765.19
-137.581 -1.17994 1765.19
-138.053 -1.17994 1765.19
-138.525 -1.17994 1765.19
-138.997 -1.17994 1765.19
-139.469 -1.17994 1765.19
-139.941 -1.17994 1765.19
-140.413 -1.17994 1765.19
-140.706 -1.17647 1760
-141.176 -1.17647 1760
-141.647 -1.17647 1760
-142.118 -1.17647 1760
-142.405 -1.17302 1754.84
-142.874 -1.17302 1754.84
-143.343 -1.17302 1754.84
-143.812 -1.17302 1754.84
-144.282 -1.17302 1754.84
-144.751 -1.17302 1754.84
-145.22 -1.17302 1754.84
-145.689 -1.17302 1754.84
-145.965 -1.16959 1749.71
-146.433 -1.16959 1749.71
-146.901 -1.16959 1749.71
-147.368 -1.16959 1749.71
-147.836 -1.16959 1749.71
-148.304 -1.16959 1749.71
-148.772 -1.16959 1749.71
-149.24 -1.16959 1749.71
-149.708 -1.16959 1749.71
-150.175 -1.16959 1749.71
-150.643 -1.16959 1749.71
-151.32 -1.17302 1754.84
-151.789 -1.17302 1754.84
-152.258 -1.17302 1754.84
-152.727 -1.17302 1754.84
-153.196 -1.17302 1754.84
-153.666 -1.17302 1754.84
-154.353 -1.17647 1760
-154.824 -1.17647 1760
-155.516 -1.17994 1765.19
-155.988 -1.17994 1765.19
-156.686 -1.18343 1770.41
-157.16 -1.18343 1770.41
-157.864 -1.18694 1775.67
-158.571 -1.19048 1780.95
-159.284 -1.19403 1786.27
-160 -1.1976 1791.62
-160.721 -1.2012 1797
-161.446 -1.20482 1802.41
-161.928 -1.20482 1802.41
-162.41 -1.20482 1802.41
-163.142 -1.20846 1807.85
-163.625 -1.20846 1807.85
-164.364 -1.21212 1813.33
-164.848 -1.21212 1813.33
-165.593 -1.21581 1818.84
-165.818 -1.21212 1813.33
-166.303 -1.21212 1813.33
-167.052 -1.21581 1818.84
-167.273 -1.21212 1813.33
-167.758 -1.21212 1813.33
-168.242 -1.21212 1813.33
-168.727 -1.21212 1813.33
-169.483 -1.21581 1818.84
-169.97 -1.21581 1818.84
-170.456 -1.21581 1818.84
-170.942 -1.21581 1818.84
-171.429 -1.21581 1818.84
-171.915 -1.21581 1818.84
-172.683 -1.21951 1824.39
-172.888 -1.21581 1818.84
-173.374 -1.21581 1818.84
-174.146 -1.21951 1824.39
-174.347 -1.21581 1818.84
-174.833 -1.21581 1818.84
-175.319 -1.21581 1818.84
-176.098 -1.21951 1824.39
-176.585 -1.21951 1824.39
-177.073 -1.21951 1824.39
-177.561 -1.21951 1824.39
-178.049 -1.21951 1824.39
-178.838 -1.22324 1829.97
-179.024 -1.21951 1824.39
-179.512 -1.21951 1824.39
-180.306 -1.22324 1829.97
-180.795 -1.22324 1829.97
-181.284 -1.22324 1829.97
20.6377 -0.695652 1734.49
20.4651 -0.697674 1739.53
19.7101 -0.695652 1734.49
19.5349 -0.697674 1739.53
19.0698 -0.697674 1739.53
18.6047 -0.697674 1739.53
18.4257 -0.699708 1744.61
18.2456 -0.701754 1749.71
17.7778 -0.701754 1749.71
17.3099 -0.701754 1749.71
17.1261 -0.703812 1754.84
16.6569 -0.703812 1754.84
16.1877 -0.703812 1754.84
15.7185 -0.703812 1754.84
15.5294 -0.705882 1760
15.3392 -0.707965 1765.19
14.8673 -0.707965 1765.19
14.3953 -0.707965 1765.19
14.2012 -0.710059 1770.41
13.4513 -0.707965 1765.19
13.2544 -0.710059 1770.41
12.7811 -0.710059 1770.41
12.3077 -0.710059 1770.41
12.1068 -0.712166 1775.67
11.632 -0.712166 1775.67
11.1573 -0.712166 1775.67
10.6825 -0.712166 1775.67
10.4762 -0.714286 1780.95
10 -0.714286 1780.95
9.52381 -0.714286 1780.95
9.04762 -0.714286 1780.95
8.83582 -0.716418 1786.27
8.35821 -0.716418 1786.27
7.8806 -0.716418 1786.27
7.40299 -0.716418 1786.27
7.18563 -0.718563 1791.62
6.70659 -0.718563 1791.62
6.22754 -0.718563 1791.62
5.7485 -0.718563 1791.62
5.52553 -0.720721 1797
5.04505 -0.720721 1797
4.56456 -0.720721 1797
4.08408 -0.720721 1797
3.6036 -0.720721 1797
3.12312 -0.720721 1797
2.64264 -0.720721 1797
2.16216 -0.720721 1797
1.92771 -0.722892 1802.41
1.2012 -0.720721 1797
0.720721 -0.720721 1797
0.481928 -0.722892 1802.41
-0 -0.722892 1802.41
-0.481928 -0.722892 1802.41
-0.963855 -0.722892 1802.41
-1.44578 -0.722892 1802.41
-1.92771 -0.722892 1802.41
-2.40964 -0.722892 1802.41
-2.89157 -0.722892 1802.41
-3.14199 -0.725076 1807.85
-3.62538 -0.725076 1807.85
-4.10876 -0.725076 1807.85
-4.59215 -0.725076 1807.85
-5.07553 -0.725076 1807.85
-5.33333 -0.727273 1813.33
-5.81818 -0.727273 1813.33
-6.30303 -0.727273 1813.33
-6.78788 -0.727273 1813.33
-7.05167 -0.729483 1818.84
-7.53799 -0.729483 1818.84
-8.02432 -0.729483 1818.84
-8.29268 -0.731707 1824.39
-8.78049 -0.731707 1824.39
-9.26829 -0.731707 1824.39
-9.32515 -0.736196 1835.58
-9.81595 -0.736196 1835.58
-9 -0.75 1870
-10.5846 -0.738462 1841.23
-10.8642 -0.740741 1846.91
-10.7165 -0.747664 1864.17
-8.31169 -0.779221 1942.86
-9.06149 -0.776699 1936.57
-9.12052 -0.781759 1949.19
-8 -0.8 1994.67
-9.24092 -0.792079 1974.92
-5.85366 -0.836237 2085.02
-7.42268 -0.824742 2056.36
-7.97251 -0.824742 2056.36
-7.52613 -0.836237 2085.02
-7.83217 -0.839161 2092.31
-7.88732 -0.84507 2107.04
-8.4507 -0.84507 2107.04
-8.51064 -0.851064 2121.99
-8.82562 -0.854093 2129.54
-9.39502 -0.854093 2129.54
-9.96441 -0.854093 2129.54
-10.2857 -0.857143 2137.14
-10.8571 -0.857143 2137.14
-11.4286 -0.857143 2137.14
-12 -0.857143 2137.14
-12.5714 -0.857143 2137.14
-13.1429 -0.857143 2137.14
-13.7143 -0.857143 2137.14
-14.0502 -0.860215 2144.8
-14.6237 -0.860215 2144.8
-15.1971 -0.860215 2144.8
-15.7706 -0.860215 2144.8
-16.3441 -0.860215 2144.8
-16.9176 -0.860215 2144.8
-17.491 -0.860215 2144.8
-18.0645 -0.860215 2144.8
-18.638 -0.860215 2144.8
-19.2115 -0.860215 2144.8
-19.7849 -0.860215 2144.8
-20.1439 -0.863309 2152.52
-20.7194 -0.863309 2152.52
-21.295 -0.863309 2152.52
-21.8705 -0.863309 2152.52
-22.446 -0.863309 2152.52
-23.0216 -0.863309 2152.52
-23.5971 -0.863309 2152.52
-24.1727 -0.863309 2152.52
-24.5487 -0.866426 2160.29
-25.1264 -0.866426 2160.29
-25.704 -0.866426 2160.29
-26.2816 -0.866426 2160.29
-26.8592 -0.866426 2160.29
-27.4368 -0.866426 2160.29
-28.0144 -0.866426 2160.29
-28.5921 -0.866426 2160.29
-28.9855 -0.869565 2168.12
-29.5652 -0.869565 2168.12
-30.1449 -0.869565 2168.12
-30.7246 -0.869565 2168.12
-31.3043 -0.869565 2168.12
-31.8841 -0.869565 2168.12
-32.4638 -0.869565 2168.12
-33.0435 -0.869565 2168.12
-33.4545 -0.872727 2176
-34.0364 -0.872727 2176
-34.6182 -0.872727 2176
-35.2 -0.872727 2176
-35.7818 -0.872727 2176
-36.3636 -0.872727 2176
-36.9455 -0.872727 2176
-37.5273 -0.872727 2176
-38.1091 -0.872727 2176
-38.6909 -0.872727 2176
-39.2727 -0.872727 2176
-39.8545 -0.872727 2176
-40.292 -0.875912 2183.94
-40.8759 -0.875912 2183.94
-41.4599 -0.875912 2183.94
-42.0438 -0.875912 2183.94
-42.6277 -0.875912 2183.94
-43.2117 -0.875912 2183.94
-43.7956 -0.875912 2183.94
-44.2491 -0.879121 2191.94
-44.8352 -0.879121 2191.94
-45.4212 -0.879121 2191.94
-46.0073 -0.879121 2191.94
-46.5934 -0.879121 2191.94
-47.1795 -0.879121 2191.94
-47.7656 -0.879121 2191.94
-48.3516 -0.879121 2191.94
-48.9377 -0.879121 2191.94
-49.4118 -0.882353 2200
-50 -0.882353 2200
-50.5882 -0.882353 2200
-51.1765 -0.882353 2200
-51.7647 -0.882353 2200
-52.3529 -0.882353 2200
-52.9412 -0.882353 2200
-53.4317 -0.885609 2208.12
-54.0221 -0.885609 2208.12
-54.6125 -0.885609 2208.12
-55.203 -0.885609 2208.12
-55.7934 -0.885609 2208.12
-56.3838 -0.885609 2208.12
-56.9742 -0.885609 2208.12
-57.5646 -0.885609 2208.12
-58.155 -0.885609 2208.12
-58.7454 -0.885609 2208.12
-59.4118 -0.882353 2200
-60 -0.882353 2200
-60.7299 -0.875912 2183.94
-61.4493 -0.869565 2168.12
-62.1583 -0.863309 2152.52
-62.9181 -0.854093 2129.54
-63.7762 -0.839161 2092.31
-64.3357 -0.839161 2092.31
-65.3061 -0.816327 2035.37
-65.802 -0.819113 2042.32
-66.5772 -0.805369 2008.05
-67.5325 -0.779221 1942.86
-68.1672 -0.771704 1924.12
-68.8254 -0.761905 1899.68
-69.434 -0.754717 1881.76
-70.0312 -0.747664 1864.17
-70.559 -0.745342 1858.39
-71.1111 -0.740741 1846.91
-71.6308 -0.738462 1841.23
-72.1231 -0.738462 1841.23
-72.6154 -0.738462 1841.23
-73.1077 -0.738462 1841.23
-73.6 -0.738462 1841.23
-74.0923 -0.738462 1841.23
-74.5846 -0.738462 1841.23
-75.0769 -0.738462 1841.23
-75.5692 -0.738462 1841.23
-76.0615 -0.738462 1841.23
-76.5538 -0.738462 1841.23
-77.0462 -0.738462 1841.23
-77.5309 -0.740741 1846.91
-78.0308 -0.738462 1841.23
-78.5185 -0.740741 1846.91
-79.0123 -0.740741 1846.91
-79.5062 -0.740741 1846.91
-80 -0.740741 1846.91
-80.4938 -0.740741 1846.91
-80.9877 -0.740741 1846.91
-81.4861 -0.743034 1852.63
-81.9814 -0.743034 1852.63
-82.4768 -0.743034 1852.63
-82.9721 -0.743034 1852.63
-83.4783 -0.745342 1858.39
-83.9752 -0.745342 1858.39
-84.472 -0.745342 1858.39
-84.9844 -0.747664 1864.17
-85.4829 -0.747664 1864.17
-85.9813 -0.747664 1864.17
-86.5 -0.75 1870
-87 -0.75 1870
-87.5 -0.75 1870
-88 -0.75 1870
-88.5 -0.75 1870
-89.0282 -0.752351 1875.86
-89.5298 -0.752351 1875.86
-90.0313 -0.752351 1875.86
-90.5329 -0.752351 1875.86
-91.0345 -0.752351 1875.86
-91.5361 -0.752351 1875.86
-92.0376 -0.752351 1875.86
-92.5392 -0.752351 1875.86
-93.0408 -0.752351 1875.86
-93.5423 -0.752351 1875.86
-94.0439 -0.752351 1875.86
-94.5455 -0.752351 1875.86
-95 -0.75 1870
-95.4517 -0.747664 1864.17
-95.9502 -0.747664 1864.17
-96.4486 -0.747664 1864.17
-96.8944 -0.745342 1858.39
-97.3375 -0.743034 1852.63
-97.7778 -0.740741 1846.91
-98.2716 -0.740741 1846.91
-98.7077 -0.738462 1841.23
-99.1411 -0.736196 1835.58
-99.6319 -0.736196 1835.58
-100.123 -0.736196 1835.58
-100.55 -0.733945 1829.97
-101.04 -0.733945 1829.97
-101.529 -0.733945 1829.97
-102.018 -0.733945 1829.97
-102.508 -0.733945 1829.97
-102.927 -0.731707 1824.39
-103.415 -0.731707 1824.39
-103.902 -0.731707 1824.39
-104.39 -0.731707 1824.39
-104.878 -0.731707 1824.39
-105.366 -0.731707 1824.39
-105.775 -0.729483 1818.84
-106.261 -0.729483 1818.84
-106.748 -0.729483 1818.84
-107.234 -0.729483 1818.84
-107.72 -0.729483 1818.84
-108.207 -0.729483 1818.84
-108.693 -0.729483 1818.84
-109.091 -0.727273 1813.33
-109.576 -0.727273 1813.33
-110.061 -0.727273 1813.33
-110.545 -0.727273 1813.33
-111.03 -0.727273 1813.33
-111.515 -0.727273 1813.33
-111.903 -0.725076 1807.85
-112.387 -0.725076 1807.85
-112.87 -0.725076 1807.85
-113.353 -0.725076 1807.85
-113.837 -0.725076 1807.85
-114.32 -0.725076 1807.85
-114.804 -0.725076 1807.85
-115.181 -0.722892 1802.41
-115.663 -0.722892 1802.41
-116.145 -0.722892 1802.41
-116.627 -0.722892 1802.41
-117.108 -0.722892 1802.41
-117.59 -0.722892 1802.41
-118.072 -0.722892 1802.41
-118.438 -0.720721 1797
-118.919 -0.720721 1797
-119.399 -0.720721 1797
-119.88 -0.720721 1797
-120.36 -0.720721 1797
-120.841 -0.720721 1797
-121.198 -0.718563 1791.62
-121.677 -0.718563 1791.62
-122.156 -0.718563 1791.62
-122.635 -0.718563 1791.62
-123.114 -0.718563 1791.62
-123.593 -0.718563 1791.62
-124.072 -0.718563 1791.62
-124.418 -0.716418 1786.27
-124.896 -0.716418 1786.27
-125.373 -0.716418 1786.27
-125.851 -0.716418 1786.27
-126.328 -0.716418 1786.27
-126.806 -0.716418 1786.27
-127.284 -0.716418 1786.27
-127.761 -0.716418 1786.27
-128.095 -0.714286 1780.95
-128.571 -0.714286 1780.95
-129.048 -0.714286 1780.95
-129.524 -0.714286 1780.95
-130 -0.714286 1780.95
-130.476 -0.714286 1780.95
-130.801 -0.712166 1775.67
-131.429 -0.714286 1780.95
-131.905 -0.714286 1780.95
-132.226 -0.712166 1775.67
-132.7 -0.712166 1775.67
-133.018 -0.710059 1770.41
-133.491 -0.710059 1770.41
-133.964 -0.710059 1770.41
-134.438 -0.710059 1770.41
-134.911 -0.710059 1770.41
-135.385 -0.710059 1770.41
-135.858 -0.710059 1770.41
-136.165 -0.707965 1765.19
-136.637 -0.707965 1765.19
-137.109 -0.707965 1765.19
-137.581 -0.707965 1765.19
-138.053 -0.707965 1765.19
-138.525 -0.707965 1765.19
-138.997 -0.707965 1765.19
-139.469 -0.707965 1765.19
-139.941 -0.707965 1765.19
-140.413 -0.707965 1765.19
-140.706 -0.705882 1760
-141.176 -0.705882 1760
-141.647 -0.705882 1760
-141.935 -0.703812 1754.84
-142.405 -0.703812 1754.84
-142.874 -0.703812 1754.84
-143.343 -0.703812 1754.84
-143.812 -0.703812 1754.84
-144.282 -0.703812 1754.84
-144.751 -0.703812 1754.84
-145.22 -0.703812 1754.84
-145.689 -0.703812 1754.84
-145.965 -0.701754 1749.71
-146.433 -0.701754 1749.71
-146.901 -0.701754 1749.71
-147.368 -0.701754 1749.71
-147.836 -0.701754 1749.71
-148.304 -0.701754 1749.71
-148.772 -0.701754 1749.71
-149.24 -0.701754 1749.71
-149.708 -0.701754 1749.71
-150.175 -0.701754 1749.71
-150.643 -0.701754 1749.71
-151.111 -0.701754 1749.71
-151.579 -0.701754 1749.71
-152.047 -0.701754 1749.71
-152.727 -0.703812 1754.84
-153.196 -0.703812 1754.84
-153.666 -0.703812 1754.84
-154.135 -0.703812 1754.84
-154.824 -0.705882 1760
-155.294 -0.705882 1760
-155.988 -0.707965 1765.19
-156.686 -0.710059 1770.41
-157.389 -0.712166 1775.67
-157.864 -0.712166 1775.67
-158.571 -0.714286 1780.95
-159.284 -0.716418 1786.27
-160 -0.718563 1791.62
-160.479 -0.718563 1791.62
-161.201 -0.720721 1797
-161.928 -0.722892 1802.41
-162.41 -0.722892 1802.41
-162.892 -0.722892 1802.41
-163.625 -0.725076 1807.85
-164.109 -0.725076 1807.85
-164.848 -0.727273 1813.33
-165.333 -0.727273 1813.33
-165.818 -0.727273 1813.33
-166.303 -0.727273 1813.33
-166.788 -0.727273 1813.33
-167.538 -0.729483 1818.84
-167.758 -0.727273 1813.33
-168.242 -0.727273 1813.33
-168.727 -0.727273 1813.33
-169.483 -0.729483 1818.84
-169.97 -0.729483 1818.84
-170.456 -0.729483 1818.84
-170.942 -0.729483 1818.84
-171.152 -0.727273 1813.33
-171.915 -0.729483 1818.84
-172.401 -0.729483 1818.84
-172.888 -0.729483 1818.84
-173.374 -0.729483 1818.84
-173.86 -0.729483 1818.84
-174.347 -0.729483 1818.84
-174.833 -0.729483 1818.84
-175.61 -0.731707 1824.39
-176.098 -0.731707 1824.39
-176.585 -0.731707 1824.39
-177.073 -0.731707 1824.39
-177.561 -0.731707 1824.39
-178.049 -0.731707 1824.39
-178.537 -0.731707 1824.39
-179.024 -0.731707 1824.39
-179.512 -0.731707 1824.39
-180 -0.731707 1824.39
-180.795 -0.733945 1829.97
-180.976 -0.731707 1824.39
20.6377 -0.231884 1734.49
20.1739 -0.231884 1734.49
19.7101 -0.231884 1734.49
19.5349 -0.232558 1739.53
19.0698 -0.232558 1739.53
18.8921 -0.233236 1744.61
18.4257 -0.233236 1744.61
17.9592 -0.233236 1744.61
17.7778 -0.233918 1749.71
17.3099 -0.233918 1749.71
16.8421 -0.233918 1749.71
16.6569 -0.234604 1754.84
16.1877 -0.234604 1754.84
15.7185 -0.234604 1754.84
15.8112 -0.235988 1765.19
15.3392 -0.235988 1765.19
14.8673 -0.235988 1765.19
14.1176 -0.235294 1760
13.9233 -0.235988 1765.19
13.7278 -0.236686 1770.41
12.9794 -0.235988 1765.19
12.7811 -0.236686 1770.41
12.3077 -0.236686 1770.41
12.1068 -0.237389 1775.67
11.632 -0.237389 1775.67
11.1573 -0.237389 1775.67
10.6825 -0.237389 1775.67
10.4762 -0.238095 1780.95
10 -0.238095 1780.95
9.52381 -0.238095 1780.95
9.31343 -0.238806 1786.27
8.83582 -0.238806 1786.27
8.35821 -0.238806 1786.27
7.8806 -0.238806 1786.27
7.66467 -0.239521 1791.62
7.18563 -0.239521 1791.62
6.70659 -0.239521 1791.62
6.22754 -0.239521 1791.62
5.7485 -0.239521 1791.62
5.52553 -0.24024 1797
5.04505 -0.24024 1797
4.56456 -0.24024 1797
4.08408 -0.24024 1797
3.6036 -0.24024 1797
3.12312 -0.24024 1797
2.89157 -0.240964 1802.41
2.40964 -0.240964 1802.41
1.68168 -0.24024 1797
1.44578 -0.240964 1802.41
0.963855 -0.240964 1802.41
0.481928 -0.240964 1802.41
-0 -0.240964 1802.41
-0.481928 -0.240964 1802.41
-0.963855 -0.240964 1802.41
-1.44578 -0.240964 1802.41
-1.92771 -0.240964 1802.41
-2.40964 -0.240964 1802.41
-2.89157 -0.240964 1802.41
-3.14199 -0.241692 1807.85
-3.62538 -0.241692 1807.85
-4.10876 -0.241692 1807.85
-4.59215 -0.241692 1807.85
-5.07553 -0.241692 1807.85
-5.33333 -0.242424 1813.33
-5.81818 -0.242424 1813.33
-6.30303 -0.242424 1813.33
-6.78788 -0.242424 1813.33
-7.27273 -0.242424 1813.33
-7.53799 -0.243161 1818.84
-8.02432 -0.243161 1818.84
-8.51064 -0.243161 1818.84
-8.78049 -0.243902 1824.39
-9.05199 -0.244648 1829.97
-9.54128 -0.244648 1829.97
-9.81595 -0.245399 1835.58
-10.3067 -0.245399 1835.58
-10.5846 -0.246154 1841.23
-10 -0.25 1870
-10.0629 -0.251572 1881.76
-10.1266 -0.253165 1893.67
-9.96805 -0.255591 1911.82
-8.88889 -0.261438 1955.56
-8.47682 -0.264901 1981.46
-9.47368 -0.263158 1968.42
-8.82943 -0.267559 2001.34
-7.91809 -0.273038 2042.32
-8.21918 -0.273973 2049.32
-7.77778 -0.277778 2077.78
-8.08362 -0.278746 2085.02
-8.39161 -0.27972 2092.31
-8.4507 -0.28169 2107.04
-8.51064 -0.283688 2121.99
-9.07801 -0.283688 2121.99
-9.39502 -0.284698 2129.54
-9.71429 -0.285714 2137.14
-10.2857 -0.285714 2137.14
-10.8571 -0.285714 2137.14
-11.4286 -0.285714 2137.14
-12 -0.285714 2137.14
-12.5714 -0.285714 2137.14
-13.1429 -0.285714 2137.14
-13.4767 -0.286738 2144.8
-14.0502 -0.286738 2144.8
-14.6237 -0.286738 2144.8
-15.1971 -0.286738 2144.8
-15.7706 -0.286738 2144.8
-16.3441 -0.286738 2144.8
-16.9176 -0.286738 2144.8
-17.491 -0.286738 2144.8
-18.0645 -0.286738 2144.8
-18.638 -0.286738 2144.8
-19.2115 -0.286738 2144.8
-19.7849 -0.286738 2144.8
-20.3584 -0.286738 2144.8
-20.7194 -0.28777 2152.52
-21.295 -0.28777 2152.52
-21.8705 -0.28777 2152.52
-22.446 -0.28777 2152.52
-23.0216 -0.28777 2152.52
-23.5971 -0.28777 2152.52
-24.1727 -0.28777 2152.52
-24.7482 -0.28777 2152.52
-25.1264 -0.288809 2160.29
-25.704 -0.288809 2160.29
-26.2816 -0.288809 2160.29
-26.8592 -0.288809 2160.29
-27.4368 -0.288809 2160.29
-28.0144 -0.288809 2160.29
-28.5921 -0.288809 2160.29
-28.9855 -0.289855 2168.12
-29.5652 -0.289855 2168.12
-30.1449 -0.289855 2168.12
-30.7246 -0.289855 2168.12
-31.3043 -0.289855 2168.12
-31.8841 -0.289855 2168.12
-32.4638 -0.289855 2168.12
-33.0435 -0.289855 2168.12
-33.6232 -0.289855 2168.12
-34.0364 -0.290909 2176
-34.6182 -0.290909 2176
-35.2 -0.290909 2176
-35.7818 -0.290909 2176
-36.3636 -0.290909 2176
-36.9455 -0.290909 2176
-37.5273 -0.290909 2176
-38.1091 -0.290909 2176
-38.6909 -0.290909 2176
-39.2727 -0.290909 2176
