-144.225 -76.338 2107.04
-144.789 -76.338 2107.04
-145.816 -76.8794 2121.99
-146.383 -76.8794 2121.99
-147.429 -77.4286 2137.14
-148.244 -77.7061 2144.8
-147.606 -76.338 2107.04
-150.657 -79.1241 2183.94
-155.077 -83.3846 2301.54
-157.176 -85.0196 2346.67
-164.068 -91.8644 2535.59
-178.039 -106.275 2933.33
-171.222 -98.0995 2707.69
-172.364 -98.5455 2720
-180.887 -106.798 2947.78
-181.675 -106.798 2947.78
-181.961 -106.275 2933.33
-181.256 -104.734 2890.82
-183.529 -106.275 2933.33
-182.308 -104.231 2876.92
-184.078 -105.243 2904.85
-184.854 -105.243 2904.85
-183.619 -103.238 2849.52
-184.381 -103.238 2849.52
-184.645 -102.749 2836.02
-184.906 -102.264 2822.64
-172.181 -89.2181 2462.55
-174 -90.3333 2493.33
-178.355 -93.8528 2590.48
-180.351 -95.0877 2624.56
-177.627 -91.8644 2535.59
-164.672 -79.1241 2183.94
-164.332 -78.2671 2160.29
-164.604 -77.9856 2152.52
-164.875 -77.7061 2144.8
-164.24 -76.6078 2114.49
-164.806 -76.6078 2114.49
-165.371 -76.6078 2114.49
-165.936 -76.6078 2114.49
-166.502 -76.6078 2114.49
-167.067 -76.6078 2114.49
-167.324 -76.338 2107.04
-168.198 -76.6078 2114.49
-168.763 -76.6078 2114.49
-169.014 -76.338 2107.04
-169.577 -76.338 2107.04
-170.141 -76.338 2107.04
-170.704 -76.338 2107.04
-171.268 -76.338 2107.04
-171.831 -76.338 2107.04
-172.394 -76.338 2107.04
-173.286 -76.6078 2114.49
-173.852 -76.6078 2114.49
-174.752 -76.8794 2121.99
-175.319 -76.8794 2121.99
-176.228 -77.153 2129.54
-176.797 -77.153 2129.54
-178.065 -77.7061 2144.8
-178.993 -77.9856 2152.52
-179.928 -78.2671 2160.29
-181.236 -78.8364 2176
-182.564 -79.4139 2191.94
-184.296 -80.2963 2216.3
-185.672 -80.8955 2232.84
-187.472 -81.8113 2258.11
-189.313 -82.7481 2283.97
-191.197 -83.7066 2310.42
-194.921 -86.0317 2374.6
-196.016 -86.3745 2384.06
-200 -88.8525 2452.46
-203.697 -91.0924 2514.29
-201.311 -88.8525 2452.46
-202.975 -89.5868 2472.73
-206.78 -91.8644 2535.59
-209.099 -93.0472 2568.24
-207.595 -91.4768 2524.89
-194.717 -81.8113 2258.11
-190.725 -78.5507 2168.12
-203.871 -87.4194 2412.9
-199.228 -83.7066 2310.42
-191.655 -77.9856 2152.52
-192.635 -78.2671 2160.29
-191.601 -77.153 2129.54
-193.381 -77.9856 2152.52
-192.74 -77.153 2129.54
-192.908 -76.8794 2121.99
-194.286 -77.4286 2137.14
-194.043 -76.8794 2121.99
-194.61 -76.8794 2121.99
-194.77 -76.6078 2114.49
-196.157 -77.153 2129.54
-196.312 -76.8794 2121.99
-196.879 -76.8794 2121.99
-197.447 -76.8794 2121.99
47.6471 -79.1176 2200
47.0588 -79.1176 2200
46.4706 -79.1176 2200
45.8824 -79.1176 2200
45.2941 -79.1176 2200
44.7059 -79.1176 2200
44.1176 -79.1176 2200
43.5294 -79.1176 2200
42.9412 -79.1176 2200
42.3529 -79.1176 2200
41.7647 -79.1176 2200
41.1765 -79.1176 2200
40.5882 -79.1176 2200
40 -79.1176 2200
39.4118 -79.1176 2200
38.3883 -78.8278 2191.94
37.8022 -78.8278 2191.94
37.2161 -78.8278 2191.94
36.63 -78.8278 2191.94
36.044 -78.8278 2191.94
35.4579 -78.8278 2191.94
34.8718 -78.8278 2191.94
33.8686 -78.5401 2183.94
33.6996 -78.8278 2191.94
32.7007 -78.5401 2183.94
32.1168 -78.5401 2183.94
31.5328 -78.5401 2183.94
30.9489 -78.5401 2183.94
30.365 -78.5401 2183.94
29.781 -78.5401 2183.94
29.1971 -78.5401 2183.94
28.6131 -78.5401 2183.94
28.0292 -78.5401 2183.94
27.4453 -78.5401 2183.94
26.8613 -78.5401 2183.94
26.2774 -78.5401 2183.94
25.3091 -78.2545 2176
24.7273 -78.2545 2176
24.1455 -78.2545 2176
23.5636 -78.2545 2176
22.9818 -78.2545 2176
22.4 -78.2545 2176
21.8182 -78.2545 2176
21.2364 -78.2545 2176
20.6545 -78.2545 2176
19.7101 -77.971 2168.12
19.1304 -77.971 2168.12
18.5507 -77.971 2168.12
17.971 -77.971 2168.12
17.3913 -77.971 2168.12
16.8116 -77.971 2168.12
16.2319 -77.971 2168.12
15.6522 -77.971 2168.12
15.0725 -77.971 2168.12
14.4928 -77.971 2168.12
13.913 -77.971 2168.12
13.3333 -77.971 2168.12
12.4188 -77.6895 2160.29
11.8412 -77.6895 2160.29
11.2635 -77.6895 2160.29
10.6859 -77.6895 2160.29
10.1083 -77.6895 2160.29
9.53069 -77.6895 2160.29
8.95307 -77.6895 2160.29
8.37545 -77.6895 2160.29
7.48201 -77.4101 2152.52
6.90647 -77.4101 2152.52
6.6426 -77.6895 2160.29
6.06498 -77.6895 2160.29
5.17986 -77.4101 2152.52
4.60432 -77.4101 2152.52
4.02878 -77.4101 2152.52
3.45324 -77.4101 2152.52
2.8777 -77.4101 2152.52
2.30216 -77.4101 2152.52
1.72662 -77.4101 2152.52
1.15108 -77.4101 2152.52
0.57554 -77.4101 2152.52
-0.286738 -77.1326 2144.8
-0.860215 -77.1326 2144.8
-1.43369 -77.1326 2144.8
-2.00717 -77.1326 2144.8
-2.58065 -77.1326 2144.8
-3.15412 -77.1326 2144.8
-3.7276 -77.1326 2144.8
-4.30108 -77.1326 2144.8
-4.87455 -77.1326 2144.8
-5.44803 -77.1326 2144.8
-6.02151 -77.1326 2144.8
-6.59498 -77.1326 2144.8
-7.16846 -77.1326 2144.8
-8 -76.8571 2137.14
-8.57143 -76.8571 2137.14
-9.14286 -76.8571 2137.14
-9.71429 -76.8571 2137.14
-10.2857 -76.8571 2137.14
-10.8571 -76.8571 2137.14
-11.4286 -76.8571 2137.14
-12 -76.8571 2137.14
-12.5714 -76.8571 2137.14
-13.1429 -76.8571 2137.14
-13.9502 -76.5836 2129.54
-14.7518 -76.3121 2121.99
-15.5477 -76.0424 2114.49
-15.6584 -76.5836 2129.54
-17.3427 -75.2448 2092.31
-17.4648 -75.7746 2107.04
-18.2456 -75.5088 2099.65
-19.2334 -74.9826 2085.02
-19.5804 -75.2448 2092.31
-21.1684 -73.9519 2056.36
-20.6993 -75.2448 2092.31
-21.8685 -74.4637 2070.59
-22.6207 -74.2069 2063.45
-22.9758 -74.4637 2070.59
-23.5294 -74.4637 2070.59
-23.8889 -74.7222 2077.78
-24.4444 -74.7222 2077.78
-23.8298 -76.3121 2121.99
-24.3972 -76.3121 2121.99
-24.9645 -76.3121 2121.99
-25.5319 -76.3121 2121.99
-26.0993 -76.3121 2121.99
-26.6667 -76.3121 2121.99
-27.234 -76.3121 2121.99
-27.8014 -76.3121 2121.99
-28.5512 -76.0424 2114.49
-29.1166 -76.0424 2114.49
-29.682 -76.0424 2114.49
-30.2473 -76.0424 2114.49
-30.8127 -76.0424 2114.49
-31.3781 -76.0424 2114.49
-31.9435 -76.0424 2114.49
-32.5088 -76.0424 2114.49
-33.0742 -76.0424 2114.49
-33.6396 -76.0424 2114.49
-34.2049 -76.0424 2114.49
-34.7703 -76.0424 2114.49
-35.3357 -76.0424 2114.49
-36.0563 -75.7746 2107.04
-36.6197 -75.7746 2107.04
-37.1831 -75.7746 2107.04
-37.7465 -75.7746 2107.04
-38.3099 -75.7746 2107.04
-38.8732 -75.7746 2107.04
-39.4366 -75.7746 2107.04
-40 -75.7746 2107.04
-40.5634 -75.7746 2107.04
-41.1268 -75.7746 2107.04
-41.6901 -75.7746 2107.04
-42.2535 -75.7746 2107.04
-42.8169 -75.7746 2107.04
-43.5088 -75.5088 2099.65
-44.0702 -75.5088 2099.65
-44.6316 -75.5088 2099.65
-45.193 -75.5088 2099.65
-45.7544 -75.5088 2099.65
-46.3158 -75.5088 2099.65
-46.8772 -75.5088 2099.65
-47.4386 -75.5088 2099.65
-48 -75.5088 2099.65
-48.5614 -75.5088 2099.65
-49.1228 -75.5088 2099.65
-49.7902 -75.2448 2092.31
-50.3497 -75.2448 2092.31
-50.9091 -75.2448 2092.31
-51.4685 -75.2448 2092.31
-52.028 -75.2448 2092.31
-52.5874 -75.2448 2092.31
-53.1469 -75.2448 2092.31
-53.7063 -75.2448 2092.31
-54.2657 -75.2448 2092.31
-54.8252 -75.2448 2092.31
-55.3846 -75.2448 2092.31
-55.9441 -75.2448 2092.31
-56.4211 -75.5088 2099.65
-56.9825 -75.5088 2099.65
-57.5439 -75.5088 2099.65
-58.1053 -75.5088 2099.65
-58.6667 -75.5088 2099.65
-59.2281 -75.5088 2099.65
-59.7895 -75.5088 2099.65
-60.3509 -75.5088 2099.65
-60.8451 -75.7746 2107.04
-61.4085 -75.7746 2107.04
-61.9718 -75.7746 2107.04
-62.5352 -75.7746 2107.04
-63.0986 -75.7746 2107.04
-63.662 -75.7746 2107.04
-64.2254 -75.7746 2107.04
-64.7887 -75.7746 2107.04
-65.3521 -75.7746 2107.04
-65.9155 -75.7746 2107.04
-66.4789 -75.7746 2107.04
-67.0423 -75.7746 2107.04
-67.6056 -75.7746 2107.04
-68.1272 -76.0424 2114.49
-68.6926 -76.0424 2114.49
-69.258 -76.0424 2114.49
-69.8233 -76.0424 2114.49
-70.3887 -76.0424 2114.49
-70.9541 -76.0424 2114.49
-71.5194 -76.0424 2114.49
-72.0848 -76.0424 2114.49
-72.6502 -76.0424 2114.49
-73.2155 -76.0424 2114.49
-73.7589 -76.3121 2121.99
-74.3262 -76.3121 2121.99
-74.8936 -76.3121 2121.99
-75.477 -76.0424 2114.49
-76.0424 -76.0424 2114.49
-76.5957 -76.3121 2121.99
-77.1731 -76.0424 2114.49
-77.7385 -76.0424 2114.49
-78.3039 -76.0424 2114.49
-78.8732 -75.7746 2107.04
-79.4366 -75.7746 2107.04
-80 -75.5088 2099.65
-80.5594 -75.2448 2092.31
-81.1073 -74.4637 2070.59
-81.6552 -74.2069 2063.45
-82.1262 -71.495 1988.04
-82.6578 -71.495 1988.04
-83.1894 -71.495 1988.04
-83.7209 -71.495 1988.04
-84.2667 -71.7333 1994.67
-84.8161 -71.9732 2001.34
-85.3512 -71.9732 2001.34
-85.906 -72.2148 2008.05
-86.443 -72.2148 2008.05
-87.0034 -72.4579 2014.81
-87.5421 -72.4579 2014.81
-88.1081 -72.7027 2021.62
-88.6195 -72.4579 2014.81
-89.2517 -73.1973 2035.37
-90.3226 -77.1326 2144.8
-90.8961 -77.1326 2144.8
-91.4695 -77.1326 2144.8
-92.043 -77.1326 2144.8
-92.6165 -77.1326 2144.8
-93.19 -77.1326 2144.8
-93.7634 -77.1326 2144.8
-94.3369 -77.1326 2144.8
-94.9104 -77.1326 2144.8
-95.4839 -77.1326 2144.8
-96.1151 -77.4101 2152.52
-96.6906 -77.4101 2152.52
-97.2662 -77.4101 2152.52
-97.8417 -77.4101 2152.52
-98.4173 -77.4101 2152.52
-98.9928 -77.4101 2152.52
-99.4982 -77.1326 2144.8
-100.144 -77.4101 2152.52
-100.645 -77.1326 2144.8
-101.219 -77.1326 2144.8
-101.792 -77.1326 2144.8
-102.366 -77.1326 2144.8
-102.857 -76.8571 2137.14
-103.429 -76.8571 2137.14
-103.915 -76.5836 2129.54
-104.571 -76.8571 2137.14
-105.233 -77.1326 2144.8
-105.714 -76.8571 2137.14
-106.286 -76.8571 2137.14
-106.857 -76.8571 2137.14
-108.235 -79.1176 2200
-108.303 -77.6895 2160.29
-108.674 -77.1326 2144.8
-109.458 -77.6895 2160.29
-110.036 -77.6895 2160.29
-110.614 -77.6895 2160.29
-111.191 -77.6895 2160.29
-111.655 -77.4101 2152.52
-112.115 -77.1326 2144.8
-112.571 -76.8571 2137.14
-113.025 -76.5836 2129.54
-113.594 -76.5836 2129.54
-114.043 -76.3121 2121.99
-114.61 -76.3121 2121.99
-115.053 -76.0424 2114.49
-115.745 -76.3121 2121.99
-116.312 -76.3121 2121.99
-116.879 -76.3121 2121.99
-117.447 -76.3121 2121.99
-118.149 -76.5836 2129.54
-118.582 -76.3121 2121.99
-119.149 -76.3121 2121.99
-120 -76.8571 2137.14
-120.427 -76.5836 2129.54
-120.996 -76.5836 2129.54
-121.566 -76.5836 2129.54
-123.37 -78.8278 2191.94
-125.113 -80.9023 2249.62
-125.714 -80.9023 2249.62
-126.667 -81.5152 2266.67
-126.222 -79.7037 2216.3
-128.429 -82.4521 2292.72
-126.545 -78.2545 2176
-130.039 -83.0888 2310.42
-131.25 -84.0625 2337.5
-132.908 -85.7371 2384.06
-134.634 -87.4797 2432.52
-135.967 -88.5597 2462.55
-136.626 -88.5597 2462.55
-137.521 -88.9256 2472.73
-133.536 -81.8251 2275.29
-139.832 -90.4202 2514.29
-140.759 -90.8017 2524.89
-136.875 -84.0625 2337.5
-137.953 -84.7244 2355.91
-138.583 -84.7244 2355.91
-133.907 -77.1326 2144.8
-134.48 -77.1326 2144.8
-138.851 -82.4521 2292.72
-137.059 -79.1176 2200
-135.603 -76.3121 2121.99
-135.775 -75.7746 2107.04
-136.338 -75.7746 2107.04
-136.901 -75.7746 2107.04
-137.465 -75.7746 2107.04
-138.028 -75.7746 2107.04
-138.592 -75.7746 2107.04
-139.155 -75.7746 2107.04
-139.718 -75.7746 2107.04
-140.282 -75.7746 2107.04
-140.845 -75.7746 2107.04
-141.408 -75.7746 2107.04
-141.972 -75.7746 2107.04
-142.535 -75.7746 2107.04
-143.099 -75.7746 2107.04
-143.662 -75.7746 2107.04
-144.225 -75.7746 2107.04
-145.018 -76.0424 2114.49
-145.816 -76.3121 2121.99
-146.619 -76.5836 2129.54
-146.714 -76.0424 2114.49
-147.279 -76.0424 2114.49
-149.065 -77.4101 2152.52
-150.4 -78.2545 2176
-153.109 -80.5993 2241.2
-160.327 -87.8367 2442.45
-176.78 -104.976 2919.02
-174.34 -101.509 2822.64
-176.923 -103.462 2876.92
-174.512 -100.093 2783.26
-179.902 -104.976 2919.02
-177.82 -101.991 2836.02
-181.961 -105.49 2933.33
-182.244 -104.976 2919.02
-183.024 -104.976 2919.02
-182.802 -103.961 2890.82
-184.585 -104.976 2919.02
-184.854 -104.466 2904.85
-179.361 -98.2648 2732.42
-178.739 -96.9369 2695.5
-179.91 -97.3756 2707.69
-181.091 -97.8182 2720
-183.704 -99.6296 2770.37
-182.545 -97.8182 2720
-180.978 -95.6444 2659.56
-162.599 -77.6895 2160.29
-176.807 -90.4202 2514.29
-170.98 -84.3922 2346.67
-164.029 -77.4101 2152.52
-164.301 -77.1326 2144.8
-164.571 -76.8571 2137.14
-164.539 -76.3121 2121.99
-164.806 -76.0424 2114.49
-165.371 -76.0424 2114.49
-165.936 -76.0424 2114.49
-166.502 -76.0424 2114.49
-167.067 -76.0424 2114.49
-167.324 -75.7746 2107.04
-167.887 -75.7746 2107.04
-168.451 -75.7746 2107.04
-169.329 -76.0424 2114.49
-169.577 -75.7746 2107.04
-170.141 -75.7746 2107.04
-170.704 -75.7746 2107.04
-171.268 -75.7746 2107.04
-172.155 -76.0424 2114.49
-172.394 -75.7746 2107.04
-173.286 -76.0424 2114.49
-173.852 -76.0424 2114.49
-174.752 -76.3121 2121.99
-175.658 -76.5836 2129.54
-175.548 -76.0424 2114.49
-176.797 -76.5836 2129.54
-178.417 -77.4101 2152.52
-179.71 -77.971 2168.12
-180.655 -78.2545 2176
-181.978 -78.8278 2191.94
-183.704 -79.7037 2216.3
-185.468 -80.5993 2241.2
-187.273 -81.5152 2266.67
-189.538 -82.7692 2301.54
-191.875 -84.0625 2337.5
-197.551 -87.8367 2442.45
-198.204 -87.8367 2442.45
-199.835 -88.5597 2462.55
-203.025 -90.4202 2514.29
-205.812 -91.9658 2557.26
-207.586 -92.7586 2579.31
-219.065 -100.561 2796.26
-217.248 -98.7156 2744.95
-208 -91.5745 2546.38
-209.785 -92.3605 2568.24
-220.092 -99.1705 2757.6
-200.791 -85.0593 2365.22
-202.88 -86.08 2393.6
-206.557 -88.1967 2452.46
-192.464 -77.971 2168.12
-193.043 -77.971 2168.12
-192 -76.8571 2137.14
-198.052 -80.5993 2241.2
-193.548 -77.1326 2144.8
-193.31 -76.5836 2129.54
-194.286 -76.8571 2137.14
-194.448 -76.5836 2129.54
-194.61 -76.3121 2121.99
-194.77 -76.0424 2114.49
-195.336 -76.0424 2114.49
-195.901 -76.0424 2114.49
-196.466 -76.0424 2114.49
-197.447 -76.3121 2121.99
47.6471 -78.5294 2200
47.0588 -78.5294 2200
46.4706 -78.5294 2200
45.8824 -78.5294 2200
45.2941 -78.5294 2200
44.7059 -78.5294 2200
44.1176 -78.5294 2200
43.5294 -78.5294 2200
42.9412 -78.5294 2200
42.3529 -78.5294 2200
41.7647 -78.5294 2200
41.1765 -78.5294 2200
40.5882 -78.5294 2200
40 -78.5294 2200
38.9744 -78.2418 2191.94
38.3883 -78.2418 2191.94
37.8022 -78.2418 2191.94
37.2161 -78.2418 2191.94
36.63 -78.2418 2191.94
36.044 -78.2418 2191.94
35.4579 -78.2418 2191.94
34.8718 -78.2418 2191.94
33.8686 -77.9562 2183.94
33.6996 -78.2418 2191.94
32.7007 -77.9562 2183.94
32.1168 -77.9562 2183.94
31.5328 -77.9562 2183.94
30.9489 -77.9562 2183.94
30.365 -77.9562 2183.94
29.781 -77.9562 2183.94
29.1971 -77.9562 2183.94
28.6131 -77.9562 2183.94
28.0292 -77.9562 2183.94
27.4453 -77.9562 2183.94
26.8613 -77.9562 2183.94
26.2774 -77.9562 2183.94
25.3091 -77.6727 2176
24.7273 -77.6727 2176
24.1455 -77.6727 2176
23.5636 -77.6727 2176
22.9818 -77.6727 2176
22.4 -77.6727 2176
21.8182 -77.6727 2176
21.2364 -77.6727 2176
20.2899 -77.3913 2168.12
19.7101 -77.3913 2168.12
19.1304 -77.3913 2168.12
18.5507 -77.3913 2168.12
17.971 -77.3913 2168.12
17.3913 -77.3913 2168.12
16.8116 -77.3913 2168.12
16.2319 -77.3913 2168.12
15.6522 -77.3913 2168.12
15.0725 -77.3913 2168.12
14.4928 -77.3913 2168.12
13.913 -77.3913 2168.12
13.3333 -77.3913 2168.12
12.4188 -77.1119 2160.29
11.8412 -77.1119 2160.29
11.2635 -77.1119 2160.29
10.6859 -77.1119 2160.29
10.1083 -77.1119 2160.29
9.53069 -77.1119 2160.29
8.95307 -77.1119 2160.29
8.37545 -77.1119 2160.29
7.48201 -76.8345 2152.52
6.90647 -76.8345 2152.52
6.33094 -76.8345 2152.52
5.7554 -76.8345 2152.52
5.17986 -76.8345 2152.52
4.60432 -76.8345 2152.52
4.02878 -76.8345 2152.52
3.45324 -76.8345 2152.52
2.8777 -76.8345 2152.52
2.30216 -76.8345 2152.52
1.72662 -76.8345 2152.52
1.15108 -76.8345 2152.52
0.286738 -76.5591 2144.8
-0.286738 -76.5591 2144.8
-0.860215 -76.5591 2144.8
-1.43369 -76.5591 2144.8
-2.00717 -76.5591 2144.8
-2.58065 -76.5591 2144.8
-3.15412 -76.5591 2144.8
-3.7276 -76.5591 2144.8
-4.30108 -76.5591 2144.8
-4.87455 -76.5591 2144.8
-5.44803 -76.5591 2144.8
-6.02151 -76.5591 2144.8
-6.59498 -76.5591 2144.8
-7.42857 -76.2857 2137.14
-8 -76.2857 2137.14
-8.57143 -76.2857 2137.14
-9.14286 -76.2857 2137.14
-9.71429 -76.2857 2137.14
-10.2857 -76.2857 2137.14
-10.8571 -76.2857 2137.14
-11.4286 -76.2857 2137.14
-12 -76.2857 2137.14
-12.5714 -76.2857 2137.14
-13.1429 -76.2857 2137.14
-14.1844 -75.7447 2121.99
-14.5196 -76.0142 2129.54
-15.089 -76.0142 2129.54
-16.338 -75.2113 2107.04
-17.3427 -74.6853 2092.31
-17.9021 -74.6853 2092.31
-18.4615 -74.6853 2092.31
-19.021 -74.6853 2092.31
-20 -74.1667 2077.78
-21.1684 -73.4021 2056.36
-21.3149 -73.91 2070.59
-22.069 -73.6552 2063.45
-22.6207 -73.6552 2063.45
-22.5784 -74.4251 2085.02
-22.9371 -74.6853 2092.31
-23.8889 -74.1667 2077.78
-24.4444 -74.1667 2077.78
-23.8298 -75.7447 2121.99
-24.3972 -75.7447 2121.99
-24.9645 -75.7447 2121.99
-25.5319 -75.7447 2121.99
-26.0993 -75.7447 2121.99
-26.6667 -75.7447 2121.99
-27.234 -75.7447 2121.99
-27.9859 -75.477 2114.49
-28.5512 -75.477 2114.49
-29.1166 -75.477 2114.49
-29.682 -75.477 2114.49
-30.2473 -75.477 2114.49
-30.8127 -75.477 2114.49
-31.3781 -75.477 2114.49
-31.9435 -75.477 2114.49
-32.5088 -75.477 2114.49
-33.0742 -75.477 2114.49
-33.6396 -75.477 2114.49
-34.2049 -75.477 2114.49
-34.7703 -75.477 2114.49
-35.3357 -75.477 2114.49
-36.0563 -75.2113 2107.04
-36.6197 -75.2113 2107.04
-37.1831 -75.2113 2107.04
-37.7465 -75.2113 2107.04
-38.3099 -75.2113 2107.04
-38.8732 -75.2113 2107.04
-39.4366 -75.2113 2107.04
-40 -75.2113 2107.04
-40.5634 -75.2113 2107.04
-41.1268 -75.2113 2107.04
-41.6901 -75.2113 2107.04
-42.2535 -75.2113 2107.04
-42.9474 -74.9474 2099.65
-43.5088 -74.9474 2099.65
-44.0702 -74.9474 2099.65
-44.6316 -74.9474 2099.65
-45.193 -74.9474 2099.65
-45.7544 -74.9474 2099.65
-46.3158 -74.9474 2099.65
-46.8772 -74.9474 2099.65
-47.4386 -74.9474 2099.65
-48 -74.9474 2099.65
-48.5614 -74.9474 2099.65
-49.2308 -74.6853 2092.31
-49.7902 -74.6853 2092.31
-50.3497 -74.6853 2092.31
-50.9091 -74.6853 2092.31
-51.4685 -74.6853 2092.31
-52.028 -74.6853 2092.31
-52.5874 -74.6853 2092.31
-53.1469 -74.6853 2092.31
-53.7063 -74.6853 2092.31
-54.2657 -74.6853 2092.31
-54.8252 -74.6853 2092.31
-55.3846 -74.6853 2092.31
-55.9441 -74.6853 2092.31
-56.4211 -74.9474 2099.65
-56.9825 -74.9474 2099.65
-57.5439 -74.9474 2099.65
-58.1053 -74.9474 2099.65
-58.6667 -74.9474 2099.65
-59.2281 -74.9474 2099.65
-59.7895 -74.9474 2099.65
-60.3509 -74.9474 2099.65
-60.9123 -74.9474 2099.65
-61.4737 -74.9474 2099.65
-61.9718 -75.2113 2107.04
-62.5352 -75.2113 2107.04
-63.0986 -75.2113 2107.04
-63.662 -75.2113 2107.04
-64.2254 -75.2113 2107.04
-64.7887 -75.2113 2107.04
-65.3521 -75.2113 2107.04
-65.9155 -75.2113 2107.04
-66.4789 -75.2113 2107.04
-67.0423 -75.2113 2107.04
-67.6056 -75.2113 2107.04
-68.169 -75.2113 2107.04
-68.6926 -75.477 2114.49
-69.258 -75.477 2114.49
-69.8233 -75.477 2114.49
-70.3887 -75.477 2114.49
-70.9541 -75.477 2114.49
-71.5194 -75.477 2114.49
-72.0848 -75.477 2114.49
-72.6502 -75.477 2114.49
-73.2155 -75.477 2114.49
-73.7809 -75.477 2114.49
-74.3262 -75.7447 2121.99
-74.8936 -75.7447 2121.99
-75.461 -75.7447 2121.99
-76.0284 -75.7447 2121.99
-76.5957 -75.7447 2121.99
-77.1631 -75.7447 2121.99
-77.7385 -75.477 2114.49
-78.3099 -75.2113 2107.04
-78.8732 -75.2113 2107.04
-79.4366 -75.2113 2107.04
-80 -74.6853 2092.31
-80.5575 -74.4251 2085.02
-81.1111 -74.1667 2077.78
-81.6216 -72.1622 2021.62
-82.1192 -70.7285 1981.46
-82.649 -70.7285 1981.46
-83.1894 -70.9635 1988.04
-83.7209 -70.9635 1988.04
-84.2384 -70.7285 1981.46
-84.7841 -70.9635 1988.04
-85.3333 -71.2 1994.67
-85.8863 -71.4381 2001.34
-86.4214 -71.4381 2001.34
-86.9799 -71.6779 2008.05
-87.5421 -71.9192 2014.81
-88.1081 -72.1622 2021.62
-88.6486 -72.1622 2021.62
-89.2203 -72.4068 2028.47
-90.3226 -76.5591 2144.8
-90.8961 -76.5591 2144.8
-91.4695 -76.5591 2144.8
-92.043 -76.5591 2144.8
-92.6165 -76.5591 2144.8
-93.19 -76.5591 2144.8
-93.7634 -76.5591 2144.8
-94.3369 -76.5591 2144.8
-94.9104 -76.5591 2144.8
-95.4839 -76.5591 2144.8
-96.1151 -76.8345 2152.52
-96.6906 -76.8345 2152.52
-97.2662 -76.8345 2152.52
-97.8417 -76.8345 2152.52
-98.4173 -76.8345 2152.52
-98.9928 -76.8345 2152.52
-99.4982 -76.5591 2144.8
-100.072 -76.5591 2144.8
-100.645 -76.5591 2144.8
-101.219 -76.5591 2144.8
-101.792 -76.5591 2144.8
-102.286 -76.2857 2137.14
-102.857 -76.2857 2137.14
-103.429 -76.2857 2137.14
-103.915 -76.0142 2129.54
-104.928 -77.3913 2168.12
-105.415 -77.1119 2160.29
-105.899 -76.8345 2152.52
-106.286 -76.2857 2137.14
-106.953 -76.5591 2144.8
-107.726 -77.1119 2160.29
-108.718 -78.2418 2191.94
-109.197 -77.9562 2183.94
-110 -78.5294 2200
-111.278 -80.3008 2249.62
-110.949 -77.9562 2183.94
-111.533 -77.9562 2183.94
-112 -77.6727 2176
-112.464 -77.3913 2168.12
-112.806 -76.8345 2152.52
-113.143 -76.2857 2137.14
-113.594 -76.0142 2129.54
-114.164 -76.0142 2129.54
-114.61 -75.7447 2121.99
-115.177 -75.7447 2121.99
-115.618 -75.477 2114.49
-116.184 -75.477 2114.49
-116.749 -75.477 2114.49
-117.314 -75.477 2114.49
-117.88 -75.477 2114.49
-118.445 -75.477 2114.49
-119.011 -75.477 2114.49
-119.576 -75.477 2114.49
-120.284 -75.7447 2121.99
-120.851 -75.7447 2121.99
-121.418 -75.7447 2121.99
-121.986 -75.7447 2121.99
-124.118 -78.5294 2200
-125.204 -79.4052 2224.54
-125.97 -79.7015 2232.84
-125.714 -78.2418 2191.94
-127.341 -80 2241.2
-128.12 -80.3008 2249.62
-129.655 -81.8391 2292.72
-130.656 -82.471 2310.42
-131.473 -82.7907 2319.38
-133.546 -85.0996 2384.06
-135.061 -86.4777 2422.67
-132.519 -81.5267 2283.97
-136.816 -87.1837 2442.45
-134.154 -82.1538 2301.54
-132.161 -78.2418 2191.94
-139.259 -87.9012 2462.55
-140.165 -88.2645 2472.73
-134.317 -78.8192 2208.12
-132.766 -75.7447 2121.99
-133.523 -76.0142 2129.54
-134.093 -76.0142 2129.54
-135.451 -77.1119 2160.29
-139.011 -81.2167 2275.29
-138.29 -79.4052 2224.54
-135.972 -75.477 2114.49
-136.338 -75.2113 2107.04
-136.901 -75.2113 2107.04
-137.465 -75.2113 2107.04
-138.028 -75.2113 2107.04
-138.592 -75.2113 2107.04
-139.155 -75.2113 2107.04
-139.718 -75.2113 2107.04
-140.282 -75.2113 2107.04
-140.845 -75.2113 2107.04
-141.408 -75.2113 2107.04
-141.972 -75.2113 2107.04
-142.535 -75.2113 2107.04
-143.099 -75.2113 2107.04
-143.662 -75.2113 2107.04
-144.225 -75.2113 2107.04
-145.018 -75.477 2114.49
-145.816 -75.7447 2121.99
-146.619 -76.0142 2129.54
-147.429 -76.2857 2137.14
-148.244 -76.5591 2144.8
-149.065 -76.8345 2152.52
-150.145 -77.3913 2168.12
-153.939 -80.9091 2266.67
-175.534 -103.689 2904.85
-175.845 -103.188 2890.82
-176.154 -102.692 2876.92
-174.648 -100.282 2809.39
-176.762 -101.714 2849.52
-178.937 -103.188 2890.82
-179.71 -103.188 2890.82
-180.483 -103.188 2890.82
-179.81 -101.714 2849.52
-180.095 -101.232 2836.02
-182.308 -102.692 2876.92
-183.575 -103.188 2890.82
-183.846 -102.692 2876.92
-183.128 -101.232 2836.02
-180.55 -97.9817 2744.95
-177.269 -94.0969 2636.12
-177.974 -94.0969 2636.12
-179.556 -94.9333 2659.56
-172.459 -87.541 2452.46
-166.718 -81.5267 2283.97
-169.725 -83.7647 2346.67
-168.615 -82.1538 2301.54
-174.694 -87.1837 2442.45
-166.519 -79.1111 2216.3
-164 -76.2857 2137.14
-164.27 -76.0142 2129.54
-164.24 -75.477 2114.49
-164.806 -75.477 2114.49
-165.371 -75.477 2114.49
-165.936 -75.477 2114.49
-166.502 -75.477 2114.49
-167.067 -75.477 2114.49
-167.324 -75.2113 2107.04
-167.887 -75.2113 2107.04
-168.451 -75.2113 2107.04
-169.329 -75.477 2114.49
-169.577 -75.2113 2107.04
-170.141 -75.2113 2107.04
-170.704 -75.2113 2107.04
-171.268 -75.2113 2107.04
-171.831 -75.2113 2107.04
-172.394 -75.2113 2107.04
-172.958 -75.2113 2107.04
-173.852 -75.477 2114.49
-174.752 -75.7447 2121.99
-176 -76.2857 2137.14
-175.887 -75.7447 2121.99
-177.842 -76.8345 2152.52
-177.714 -76.2857 2137.14
-180.438 -77.9562 2183.94
-181.022 -77.9562 2183.94
-183.111 -79.1111 2216.3
-184.869 -80 2241.2
-186.667 -80.9091 2266.67
-188.923 -82.1538 2301.54
-195.772 -86.8293 2432.52
-194.56 -85.44 2393.6
-198.519 -87.9012 2462.55
-199.177 -87.9012 2462.55
-200.83 -88.6307 2482.99
-205.665 -91.6738 2568.24
-209.123 -93.6842 2624.56
-210.973 -94.5133 2647.79
-214.661 -96.6516 2707.69
-212.389 -94.5133 2647.79
-214.286 -95.3571 2671.43
-210.909 -92.4675 2590.48
-214.513 -94.5133 2647.79
-200.315 -84.0945 2355.91
-204.372 -86.4777 2422.67
-200.156 -83.1128 2328.4
-195.39 -79.4052 2224.54
-205.301 -85.7831 2403.21
-193.623 -77.3913 2168.12
-192.975 -76.5591 2144.8
-197.333 -79.1111 2216.3
-194.532 -76.8345 2152.52
-193.879 -76.0142 2129.54
-194.043 -75.7447 2121.99
-194.61 -75.7447 2121.99
-194.77 -75.477 2114.49
-195.336 -75.477 2114.49
-195.901 -75.477 2114.49
-196.466 -75.477 2114.49
-197.032 -75.477 2114.49
47.6471 -77.9412 2200
47.0588 -77.9412 2200
46.4706 -77.9412 2200
45.8824 -77.9412 2200
45.2941 -77.9412 2200
44.7059 -77.9412 2200
44.1176 -77.9412 2200
43.5294 -77.9412 2200
42.9412 -77.9412 2200
42.3529 -77.9412 2200
41.7647 -77.9412 2200
41.1765 -77.9412 2200
40.5882 -77.9412 2200
39.5604 -77.6557 2191.94
38.9744 -77.6557 2191.94
38.3883 -77.6557 2191.94
37.8022 -77.6557 2191.94
37.2161 -77.6557 2191.94
36.63 -77.6557 2191.94
36.044 -77.6557 2191.94
35.4579 -77.6557 2191.94
34.8718 -77.6557 2191.94
34.2857 -77.6557 2191.94
33.2847 -77.3723 2183.94
32.7007 -77.3723 2183.94
32.1168 -77.3723 2183.94
31.5328 -77.3723 2183.94
30.9489 -77.3723 2183.94
30.365 -77.3723 2183.94
29.781 -77.3723 2183.94
29.1971 -77.3723 2183.94
28.6131 -77.3723 2183.94
28.0292 -77.3723 2183.94
27.4453 -77.3723 2183.94
26.8613 -77.3723 2183.94
25.8909 -77.0909 2176
25.3091 -77.0909 2176
24.7273 -77.0909 2176
24.1455 -77.0909 2176
23.5636 -77.0909 2176
22.9818 -77.0909 2176
22.4 -77.0909 2176
21.8182 -77.0909 2176
21.2364 -77.0909 2176
20.2899 -76.8116 2168.12
20.0727 -77.0909 2176
19.1304 -76.8116 2168.12
18.5507 -76.8116 2168.12
17.971 -76.8116 2168.12
17.3913 -76.8116 2168.12
16.8116 -76.8116 2168.12
16.2319 -76.8116 2168.12
15.6522 -76.8116 2168.12
15.0725 -76.8116 2168.12
14.4928 -76.8116 2168.12
13.913 -76.8116 2168.12
12.9964 -76.5343 2160.29
12.4188 -76.5343 2160.29
11.8412 -76.5343 2160.29
11.2635 -76.5343 2160.29
10.6859 -76.5343 2160.29
10.1083 -76.5343 2160.29
9.53069 -76.5343 2160.29
8.95307 -76.5343 2160.29
8.05755 -76.259 2152.52
7.79783 -76.5343 2160.29
7.22022 -76.5343 2160.29
6.33094 -76.259 2152.52
5.7554 -76.259 2152.52
5.17986 -76.259 2152.52
4.60432 -76.259 2152.52
4.02878 -76.259 2152.52
3.45324 -76.259 2152.52
2.8777 -76.259 2152.52
2.30216 -76.259 2152.52
1.43369 -75.9857 2144.8
0.860215 -75.9857 2144.8
0.286738 -75.9857 2144.8
-0.286738 -75.9857 2144.8
-0.860215 -75.9857 2144.8
-1.43369 -75.9857 2144.8
-2.00717 -75.9857 2144.8
-2.58065 -75.9857 2144.8
-3.15412 -75.9857 2144.8
-3.7276 -75.9857 2144.8
-4.30108 -75.9857 2144.8
-4.87455 -75.9857 2144.8
-5.44803 -75.9857 2144.8
-6.28571 -75.7143 2137.14
-6.85714 -75.7143 2137.14
-7.42857 -75.7143 2137.14
-8 -75.7143 2137.14
-8.57143 -75.7143 2137.14
-9.14286 -75.7143 2137.14
-9.71429 -75.7143 2137.14
-10.2857 -75.7143 2137.14
-10.8571 -75.7143 2137.14
-11.4286 -75.7143 2137.14
-12.242 -75.4448 2129.54
-12.8114 -75.4448 2129.54
-13.617 -75.1773 2121.99
-14.1844 -75.1773 2121.99
-14.7518 -75.1773 2121.99
-16.2238 -74.1259 2092.31
-16.1131 -74.9117 2114.49
-17.1228 -74.386 2099.65
-18.5467 -73.3564 2070.59
-18.8889 -73.6111 2077.78
-19.654 -73.3564 2070.59
-20 -73.6111 2077.78
-21.1684 -72.8522 2056.36
-21.5172 -73.1034 2063.45
-21.8685 -73.3564 2070.59
-22.6207 -73.1034 2063.45
-22.7778 -73.6111 2077.78
-23.5294 -73.3564 2070.59
-23.2982 -74.386 2099.65
-24.2509 -73.8676 2085.02
-24.0283 -74.9117 2114.49
-24.3972 -75.1773 2121.99
-24.9645 -75.1773 2121.99
-25.5319 -75.1773 2121.99
-26.0993 -75.1773 2121.99
-26.6667 -75.1773 2121.99
-27.4205 -74.9117 2114.49
-27.9859 -74.9117 2114.49
-28.5512 -74.9117 2114.49
-29.1166 -74.9117 2114.49
-29.682 -74.9117 2114.49
-30.2473 -74.9117 2114.49
-30.8127 -74.9117 2114.49
-31.3781 -74.9117 2114.49
-31.9435 -74.9117 2114.49
-32.5088 -74.9117 2114.49
-33.0742 -74.9117 2114.49
-33.6396 -74.9117 2114.49
-34.2049 -74.9117 2114.49
-34.9296 -74.6479 2107.04
-35.493 -74.6479 2107.04
-36.0563 -74.6479 2107.04
-36.6197 -74.6479 2107.04
-37.1831 -74.6479 2107.04
-37.7465 -74.6479 2107.04
-38.3099 -74.6479 2107.04
-38.8732 -74.6479 2107.04
-39.4366 -74.6479 2107.04
-40 -74.6479 2107.04
-40.5634 -74.6479 2107.04
-41.1268 -74.6479 2107.04
-41.6901 -74.6479 2107.04
-42.2535 -74.6479 2107.04
-42.9474 -74.386 2099.65
-43.5088 -74.386 2099.65
-44.0702 -74.386 2099.65
-44.6316 -74.386 2099.65
-45.193 -74.386 2099.65
-45.7544 -74.386 2099.65
-46.3158 -74.386 2099.65
-46.8772 -74.386 2099.65
-47.5524 -74.1259 2092.31
-48.1119 -74.1259 2092.31
-48.6713 -74.1259 2092.31
-49.2308 -74.1259 2092.31
-49.7902 -74.1259 2092.31
-50.3497 -74.1259 2092.31
-50.9091 -74.1259 2092.31
-51.4685 -74.1259 2092.31
-52.028 -74.1259 2092.31
-52.5874 -74.1259 2092.31
-53.1469 -74.1259 2092.31
-53.7063 -74.1259 2092.31
-54.2657 -74.1259 2092.31
-54.8252 -74.1259 2092.31
-55.3846 -74.1259 2092.31
-55.9441 -74.1259 2092.31
-56.4211 -74.386 2099.65
-57.0629 -74.1259 2092.31
-57.5439 -74.386 2099.65
-58.1053 -74.386 2099.65
-58.6667 -74.386 2099.65
-59.2281 -74.386 2099.65
-59.7895 -74.386 2099.65
-60.3509 -74.386 2099.65
-60.9123 -74.386 2099.65
-61.4737 -74.386 2099.65
-61.9718 -74.6479 2107.04
-62.5352 -74.6479 2107.04
-63.0986 -74.6479 2107.04
-63.662 -74.6479 2107.04
-64.2254 -74.6479 2107.04
-64.7887 -74.6479 2107.04
-65.3521 -74.6479 2107.04
-65.9155 -74.6479 2107.04
-66.4789 -74.6479 2107.04
-67.0423 -74.6479 2107.04
-67.6056 -74.6479 2107.04
-68.169 -74.6479 2107.04
-68.6926 -74.9117 2114.49
-69.258 -74.9117 2114.49
-69.8233 -74.9117 2114.49
-70.3887 -74.9117 2114.49
-70.9541 -74.9117 2114.49
-71.5194 -74.9117 2114.49
-72.0848 -74.9117 2114.49
-72.6502 -74.9117 2114.49
-73.2155 -74.9117 2114.49
-73.7809 -74.9117 2114.49
-74.3463 -74.9117 2114.49
-74.8936 -75.1773 2121.99
-75.461 -75.1773 2121.99
-76.0284 -75.1773 2121.99
-76.6078 -74.9117 2114.49
-77.1731 -74.9117 2114.49
-77.7465 -74.6479 2107.04
-78.3333 -73.6111 2077.78
-78.8811 -74.1259 2092.31
-79.4386 -74.386 2099.65
-80 -74.1259 2092.31
-80.5536 -73.3564 2070.59
-81.1111 -73.6111 2077.78
-81.6 -70.6667 1994.67
-82.1262 -70.4319 1988.04
-82.6667 -70.6667 1994.67
-83.2 -70.6667 1994.67
-83.7333 -70.6667 1994.67
-84.2667 -70.6667 1994.67
-84.8 -70.6667 1994.67
-85.3333 -70.6667 1994.67
-85.8667 -70.6667 1994.67
-86.4214 -70.903 2001.34
-86.9799 -71.1409 2008.05
-87.5168 -71.1409 2008.05
-88.0808 -71.3805 2014.81
-88.6486 -71.6216 2021.62
-89.2203 -71.8644 2028.47
-89.7297 -71.6216 2021.62
-90.8961 -75.9857 2144.8
-91.4695 -75.9857 2144.8
-92.043 -75.9857 2144.8
-92.6165 -75.9857 2144.8
-93.19 -75.9857 2144.8
-93.7634 -75.9857 2144.8
-94.3369 -75.9857 2144.8
-94.9104 -75.9857 2144.8
-95.4839 -75.9857 2144.8
-96.1151 -76.259 2152.52
-96.6906 -76.259 2152.52
-97.2662 -76.259 2152.52
-97.8417 -76.259 2152.52
-98.4173 -76.259 2152.52
-98.9247 -75.9857 2144.8
-99.4982 -75.9857 2144.8
-100.072 -75.9857 2144.8
-100.645 -75.9857 2144.8
-101.143 -75.7143 2137.14
-101.792 -75.9857 2144.8
-102.286 -75.7143 2137.14
-102.857 -75.7143 2137.14
-103.345 -75.4448 2129.54
-103.915 -75.4448 2129.54
-105.018 -77.0909 2176
-105.233 -75.9857 2144.8
-105.806 -75.9857 2144.8
-106.57 -76.5343 2160.29
-107.05 -76.259 2152.52
-107.826 -76.8116 2168.12
-108.613 -77.3723 2183.94
-109.304 -77.6557 2191.94
-111.027 -80.6084 2275.29
-111.161 -79.4007 2241.2
-111.292 -78.2288 2208.12
-111.882 -78.2288 2208.12
-112.234 -77.6557 2191.94
-112.582 -77.0909 2176
-112.924 -76.5343 2160.29
-113.381 -76.259 2152.52
-113.714 -75.7143 2137.14
-114.164 -75.4448 2129.54
-114.366 -74.6479 2107.04
-115.177 -75.1773 2121.99
-115.618 -74.9117 2114.49
-116.184 -74.9117 2114.49
-116.749 -74.9117 2114.49
-117.183 -74.6479 2107.04
-117.88 -74.9117 2114.49
-118.31 -74.6479 2107.04
-119.011 -74.9117 2114.49
-119.576 -74.9117 2114.49
-120.141 -74.9117 2114.49
-120.707 -74.9117 2114.49
-121.127 -74.6479 2107.04
-121.837 -74.9117 2114.49
-122.403 -74.9117 2114.49
-123.274 -75.4448 2129.54
-125.294 -77.9412 2200
-125.547 -77.3723 2183.94
-127.519 -79.6992 2249.62
-127.584 -78.8104 2224.54
-128.906 -80 2258.11
-129.697 -80.303 2266.67
-130.303 -80.303 2266.67
-132.706 -83.1373 2346.67
-133.755 -83.7945 2365.22
-134.603 -84.127 2374.6
-135.68 -84.8 2393.6
-136.774 -85.4839 2412.9
-137.189 -85.1406 2403.21
-138.3 -85.83 2422.67
-131.449 -74.9117 2114.49
-132.199 -75.1773 2121.99
-132.954 -75.4448 2129.54
-133.523 -75.4448 2129.54
-133.901 -75.1773 2121.99
-134.276 -74.9117 2114.49
-134.841 -74.9117 2114.49
-137.86 -78.2288 2208.12
-137.184 -76.5343 2160.29
-136.537 -74.9117 2114.49
-137.102 -74.9117 2114.49
-137.668 -74.9117 2114.49
-138.028 -74.6479 2107.04
-138.592 -74.6479 2107.04
-139.155 -74.6479 2107.04
-139.718 -74.6479 2107.04
-140.282 -74.6479 2107.04
-140.845 -74.6479 2107.04
-141.408 -74.6479 2107.04
-141.972 -74.6479 2107.04
-142.535 -74.6479 2107.04
-143.099 -74.6479 2107.04
-143.662 -74.6479 2107.04
-144.225 -74.6479 2107.04
-145.018 -74.9117 2114.49
-145.352 -74.6479 2107.04
-146.619 -75.4448 2129.54
-147.429 -75.7143 2137.14
-147.042 -74.6479 2107.04
-149.065 -76.259 2152.52
-150.145 -76.8116 2168.12
-148.975 -74.9117 2114.49
-167.857 -94.6429 2671.43
-174.928 -101.435 2863.16
-175.694 -101.435 2863.16
-176 -100.952 2849.52
-175.399 -99.5305 2809.39
-177.99 -101.435 2863.16
-178.756 -101.435 2863.16
-179.048 -100.952 2849.52
-179.81 -100.952 2849.52
-177.778 -98.1481 2770.37
-180.853 -100.474 2836.02
-182.584 -101.435 2863.16
-180.465 -98.6047 2783.26
-182.16 -99.5305 2809.39
-178.296 -95.0673 2683.41
-181.284 -97.2477 2744.95
-174.237 -89.8305 2535.59
-173.333 -88.3333 2493.33
-171.707 -86.1789 2432.52
-168.75 -82.8125 2337.5
-168 -81.5385 2301.54
-168.958 -81.8533 2310.42
-164.672 -77.3723 2183.94
-171.25 -82.8125 2337.5
-164.91 -76.5343 2160.29
-164.27 -75.4448 2129.54
-164.539 -75.1773 2121.99
-164.806 -74.9117 2114.49
-165.371 -74.9117 2114.49
-165.936 -74.9117 2114.49
-166.502 -74.9117 2114.49
-167.067 -74.9117 2114.49
-167.324 -74.6479 2107.04
-167.887 -74.6479 2107.04
-168.451 -74.6479 2107.04
-169.014 -74.6479 2107.04
-169.577 -74.6479 2107.04
-170.141 -74.6479 2107.04
-170.704 -74.6479 2107.04
-171.268 -74.6479 2107.04
-171.831 -74.6479 2107.04
-172.394 -74.6479 2107.04
-172.958 -74.6479 2107.04
-173.852 -74.9117 2114.49
-174.752 -75.1773 2121.99
-175.658 -75.4448 2129.54
-175.887 -75.1773 2121.99
-178.551 -76.8116 2168.12
-179.854 -77.3723 2183.94
-180.806 -77.6557 2191.94
-181.022 -77.3723 2183.94
-184.27 -79.4007 2241.2
-186.061 -80.303 2266.67
-187.481 -80.916 2283.97
-190.625 -82.8125 2337.5
-192.569 -83.7945 2365.22
-195.951 -85.83 2422.67
-197.551 -86.5306 2442.45
-211.636 -96.3636 2720
-209.422 -94.2222 2659.56
-210.714 -94.6429 2671.43
-212.613 -95.4955 2695.5
-213.937 -95.9276 2707.69
-216.514 -97.2477 2744.95
-216.621 -96.8037 2732.42
-215.495 -95.4955 2695.5
-215 -94.6429 2671.43
-213.921 -93.3921 2636.12
-216.429 -94.6429 2671.43
-195.925 -80 2258.11
-205.02 -85.83 2422.67
-194.963 -78.5185 2216.3
-214.483 -91.3793 2579.31
-201.55 -82.1705 2319.38
-195.882 -77.9412 2200
-193.548 -75.9857 2144.8
-195.782 -77.0909 2176
-194.286 -75.7143 2137.14
-194.448 -75.4448 2129.54
-194.61 -75.1773 2121.99
-194.77 -74.9117 2114.49
-195.336 -74.9117 2114.49
-195.901 -74.9117 2114.49
-196.466 -74.9117 2114.49
-197.032 -74.9117 2114.49
47.6471 -77.3529 2200
47.0588 -77.3529 2200
46.4706 -77.3529 2200
45.8824 -77.3529 2200
45.2941 -77.3529 2200
44.7059 -77.3529 2200
44.1176 -77.3529 2200
43.5294 -77.3529 2200
42.9412 -77.3529 2200
42.3529 -77.3529 2200
41.7647 -77.3529 2200
41.1765 -77.3529 2200
40.5882 -77.3529 2200
39.5604 -77.0696 2191.94
38.9744 -77.0696 2191.94
38.3883 -77.0696 2191.94
37.8022 -77.0696 2191.94
37.2161 -77.0696 2191.94
36.63 -77.0696 2191.94
36.044 -77.0696 2191.94
35.4579 -77.0696 2191.94
34.8718 -77.0696 2191.94
34.2857 -77.0696 2191.94
33.2847 -76.7883 2183.94
32.7007 -76.7883 2183.94
32.1168 -76.7883 2183.94
31.5328 -76.7883 2183.94
30.9489 -76.7883 2183.94
30.365 -76.7883 2183.94
29.781 -76.7883 2183.94
29.1971 -76.7883 2183.94
28.6131 -76.7883 2183.94
28.0292 -76.7883 2183.94
27.4453 -76.7883 2183.94
26.4727 -76.5091 2176
25.8909 -76.5091 2176
25.3091 -76.5091 2176
24.7273 -76.5091 2176
24.1455 -76.5091 2176
23.5636 -76.5091 2176
22.9818 -76.5091 2176
22.4 -76.5091 2176
21.8182 -76.5091 2176
20.8696 -76.2319 2168.12
20.2899 -76.2319 2168.12
19.7101 -76.2319 2168.12
19.1304 -76.2319 2168.12
18.5507 -76.2319 2168.12
17.971 -76.2319 2168.12
17.3913 -76.2319 2168.12
16.8116 -76.2319 2168.12
16.2319 -76.2319 2168.12
15.6522 -76.2319 2168.12
15.0725 -76.2319 2168.12
14.4928 -76.2319 2168.12
13.574 -75.9567 2160.29
12.9964 -75.9567 2160.29
12.4188 -75.9567 2160.29
11.8412 -75.9567 2160.29
11.2635 -75.9567 2160.29
10.6859 -75.9567 2160.29
10.1083 -75.9567 2160.29
9.53069 -75.9567 2160.29
8.95307 -75.9567 2160.29
8.37545 -75.9567 2160.29
7.48201 -75.6835 2152.52
6.90647 -75.6835 2152.52
6.33094 -75.6835 2152.52
5.7554 -75.6835 2152.52
5.17986 -75.6835 2152.52
4.60432 -75.6835 2152.52
4.02878 -75.6835 2152.52
3.45324 -75.6835 2152.52
2.8777 -75.6835 2152.52
2.30216 -75.6835 2152.52
1.43369 -75.4122 2144.8
0.860215 -75.4122 2144.8
0.286738 -75.4122 2144.8
-0.286738 -75.4122 2144.8
-0.860215 -75.4122 2144.8
-1.43369 -75.4122 2144.8
-2.00717 -75.4122 2144.8
-2.58065 -75.4122 2144.8
-3.15412 -75.4122 2144.8
-3.7276 -75.4122 2144.8
-4.30108 -75.4122 2144.8
-4.87455 -75.4122 2144.8
-5.71429 -75.1429 2137.14
-6.28571 -75.1429 2137.14
-6.85714 -75.1429 2137.14
-7.42857 -75.1429 2137.14
-8 -75.1429 2137.14
-8.57143 -75.1429 2137.14
-9.14286 -75.1429 2137.14
-9.71429 -75.1429 2137.14
-10.2857 -75.1429 2137.14
-10.8571 -75.1429 2137.14
-11.4286 -75.1429 2137.14
-12.242 -74.8754 2129.54
-12.8114 -74.8754 2129.54
-13.617 -74.6099 2121.99
-14.1844 -74.6099 2121.99
-14.9823 -74.3463 2114.49
-15.5477 -74.3463 2114.49
-16.338 -74.0845 2107.04
-17.1228 -73.8246 2099.65
-17.6842 -73.8246 2099.65
-19.1003 -72.8028 2070.59
-19.4444 -73.0556 2077.78
-20.8219 -72.0548 2049.32
-21.1684 -72.3024 2056.36
-21.7182 -72.3024 2056.36
-22.069 -72.5517 2063.45
-22.6207 -72.5517 2063.45
-22.7778 -73.0556 2077.78
-23.5294 -72.8028 2070.59
-24.083 -72.8028 2070.59
-24.2509 -73.3101 2085.02
-24.2254 -74.0845 2107.04
-24.3972 -74.6099 2121.99
-24.9645 -74.6099 2121.99
-25.5319 -74.6099 2121.99
-26.0993 -74.6099 2121.99
-26.6667 -74.6099 2121.99
-27.4205 -74.3463 2114.49
-27.9859 -74.3463 2114.49
-28.5512 -74.3463 2114.49
-29.1166 -74.3463 2114.49
-29.682 -74.3463 2114.49
-30.2473 -74.3463 2114.49
-30.8127 -74.3463 2114.49
-31.3781 -74.3463 2114.49
-31.9435 -74.3463 2114.49
-32.5088 -74.3463 2114.49
-33.0742 -74.3463 2114.49
-33.6396 -74.3463 2114.49
-34.3662 -74.0845 2107.04
-34.9296 -74.0845 2107.04
-35.493 -74.0845 2107.04
-36.0563 -74.0845 2107.04
-36.6197 -74.0845 2107.04
-37.1831 -74.0845 2107.04
-37.7465 -74.0845 2107.04
-38.3099 -74.0845 2107.04
-38.8732 -74.0845 2107.04
-39.4366 -74.0845 2107.04
-40 -74.0845 2107.04
-40.5634 -74.0845 2107.04
-41.2632 -73.8246 2099.65
-41.6901 -74.0845 2107.04
-42.386 -73.8246 2099.65
-42.9474 -73.8246 2099.65
-43.5088 -73.8246 2099.65
-44.0702 -73.8246 2099.65
-44.6316 -73.8246 2099.65
-45.193 -73.8246 2099.65
-45.7544 -73.8246 2099.65
-46.3158 -73.8246 2099.65
-46.8772 -73.8246 2099.65
-47.4386 -73.8246 2099.65
-48.1119 -73.5664 2092.31
-48.6713 -73.5664 2092.31
-49.2308 -73.5664 2092.31
-49.7902 -73.5664 2092.31
-50.3497 -73.5664 2092.31
-50.9091 -73.5664 2092.31
-51.4685 -73.5664 2092.31
-52.028 -73.5664 2092.31
-52.5874 -73.5664 2092.31
-53.1469 -73.5664 2092.31
-53.7063 -73.5664 2092.31
-54.2657 -73.5664 2092.31
-54.8252 -73.5664 2092.31
-55.3846 -73.5664 2092.31
-55.9441 -73.5664 2092.31
-56.4211 -73.8246 2099.65
-56.9825 -73.8246 2099.65
-57.6224 -73.5664 2092.31
-58.1053 -73.8246 2099.65
-58.6667 -73.8246 2099.65
-59.2281 -73.8246 2099.65
-59.7895 -73.8246 2099.65
-60.3509 -73.8246 2099.65
-60.9123 -73.8246 2099.65
-61.4737 -73.8246 2099.65
-61.9718 -74.0845 2107.04
-62.5352 -74.0845 2107.04
-63.0986 -74.0845 2107.04
-63.662 -74.0845 2107.04
-64.2254 -74.0845 2107.04
-64.7887 -74.0845 2107.04
-65.3521 -74.0845 2107.04
-65.9155 -74.0845 2107.04
-66.4789 -74.0845 2107.04
-67.0423 -74.0845 2107.04
-67.6056 -74.0845 2107.04
-68.169 -74.0845 2107.04
-68.7324 -74.0845 2107.04
-69.258 -74.3463 2114.49
-69.8233 -74.3463 2114.49
-70.3887 -74.3463 2114.49
-70.9541 -74.3463 2114.49
-71.5194 -74.3463 2114.49
-72.0848 -74.3463 2114.49
-72.6502 -74.3463 2114.49
-73.2155 -74.3463 2114.49
-73.7809 -74.3463 2114.49
-74.3262 -74.6099 2121.99
-74.8936 -74.6099 2121.99
-75.477 -74.3463 2114.49
-76.0563 -74.0845 2107.04
-76.6197 -74.0845 2107.04
-77.193 -73.8246 2099.65
-77.7544 -73.8246 2099.65
-78.3217 -73.5664 2092.31
-78.9226 -70.8418 2014.81
-79.4425 -73.3101 2085.02
-80 -73.3101 2085.02
-80.5556 -73.0556 2077.78
-81.0811 -71.0811 2021.62
-81.6 -70.1333 1994.67
-82.1549 -70.8418 2014.81
-82.6578 -69.9003 1988.04
-83.2 -70.1333 1994.67
-83.7333 -70.1333 1994.67
-84.2667 -70.1333 1994.67
-84.7841 -69.9003 1988.04
-85.3333 -70.1333 1994.67
-85.8667 -70.1333 1994.67
-86.4 -70.1333 1994.67
-86.9565 -70.3679 2001.34
-87.4916 -70.3679 2001.34
-88.0537 -70.604 2008.05
-88.5906 -70.604 2008.05
-89.1582 -70.8418 2014.81
-90.0348 -73.3101 2085.02
-90.8961 -75.4122 2144.8
-91.4695 -75.4122 2144.8
-92.043 -75.4122 2144.8
-92.6165 -75.4122 2144.8
-93.19 -75.4122 2144.8
-93.7634 -75.4122 2144.8
-94.3369 -75.4122 2144.8
-94.9104 -75.4122 2144.8
-95.4839 -75.4122 2144.8
-96.1151 -75.6835 2152.52
-96.6906 -75.6835 2152.52
-97.2662 -75.6835 2152.52
-97.8417 -75.6835 2152.52
-98.4173 -75.6835 2152.52
-98.9247 -75.4122 2144.8
-99.4982 -75.4122 2144.8
-100.072 -75.4122 2144.8
-100.645 -75.4122 2144.8
-101.219 -75.4122 2144.8
-101.714 -75.1429 2137.14
-102.286 -75.1429 2137.14
-102.857 -75.1429 2137.14
-103.429 -75.1429 2137.14
-104.086 -75.4122 2144.8
-104.928 -76.2319 2168.12
-105.693 -76.7883 2183.94
-105.899 -75.6835 2152.52
-106.57 -75.9567 2160.29
-107.345 -76.5091 2176
-108.029 -76.7883 2183.94
-108.93 -77.6384 2208.12
-109.851 -78.5075 2232.84
-111.145 -80.3053 2283.97
-111.877 -80.613 2292.72
-113.255 -82.5098 2346.67
-112.119 -78.2156 2224.54
-112.593 -77.9259 2216.3
-112.941 -77.3529 2200
-113.164 -76.5091 2176
-113.502 -75.9567 2160.29
-113.835 -75.4122 2144.8
-114.286 -75.1429 2137.14
-114.733 -74.8754 2129.54
-115.177 -74.6099 2121.99
-115.618 -74.3463 2114.49
-116.184 -74.3463 2114.49
-116.62 -74.0845 2107.04
-117.183 -74.0845 2107.04
-117.746 -74.0845 2107.04
-118.31 -74.0845 2107.04
-118.873 -74.0845 2107.04
-119.437 -74.0845 2107.04
-120 -74.0845 2107.04
-120.563 -74.0845 2107.04
-121.127 -74.0845 2107.04
-121.69 -74.0845 2107.04
-122.254 -74.0845 2107.04
-122.817 -74.0845 2107.04
-125.128 -77.0696 2191.94
-125.382 -76.5091 2176
-126.471 -77.3529 2200
-126.886 -77.0696 2191.94
-128 -77.9259 2216.3
-129.509 -79.3962 2258.11
-129.925 -79.0977 2249.62
-130.717 -79.3962 2258.11
-132.713 -81.5504 2319.38
-133.961 -82.5098 2346.67
-134.803 -82.8346 2355.91
-135.873 -83.4921 2374.6
-134.769 -80.9231 2301.54
-130.883 -74.3463 2114.49
-131.449 -74.3463 2114.49
-132.199 -74.6099 2121.99
-132.766 -74.6099 2121.99
-133.145 -74.3463 2114.49
-133.71 -74.3463 2114.49
-134.276 -74.3463 2114.49
-135.035 -74.6099 2121.99
-135.406 -74.3463 2114.49
-137.184 -75.9567 2160.29
-136.94 -74.8754 2129.54
-137.102 -74.3463 2114.49
-137.668 -74.3463 2114.49
-138.233 -74.3463 2114.49
-138.799 -74.3463 2114.49
-139.364 -74.3463 2114.49
-139.929 -74.3463 2114.49
-140.495 -74.3463 2114.49
-141.06 -74.3463 2114.49
-141.625 -74.3463 2114.49
-142.191 -74.3463 2114.49
-142.535 -74.0845 2107.04
-143.099 -74.0845 2107.04
-143.662 -74.0845 2107.04
-144.225 -74.0845 2107.04
-145.018 -74.3463 2114.49
-145.583 -74.3463 2114.49
-146.383 -74.6099 2121.99
-147.189 -74.8754 2129.54
-147.042 -74.0845 2107.04
-148.817 -75.4122 2144.8
-149.64 -75.6835 2152.52
-150.725 -76.2319 2168.12
-151.564 -76.5091 2176
-159.679 -84.498 2403.21
-173.897 -98.7793 2809.39
-174.648 -98.7793 2809.39
-172.785 -96.0731 2732.42
-175.256 -97.8605 2783.26
-176.449 -98.3178 2796.26
-178.113 -99.2453 2822.64
-178.404 -98.7793 2809.39
-177.778 -97.4074 2770.37
-177.169 -96.0731 2732.42
-178.349 -96.5138 2744.95
-180.465 -97.8605 2783.26
-180.741 -97.4074 2770.37
-180.55 -96.5138 2744.95
-179.459 -94.7748 2695.5
-177.974 -92.6872 2636.12
-174.515 -88.7764 2524.89
-175.593 -89.1525 2535.59
-172.735 -85.8776 2442.45
-170.794 -83.4921 2374.6
-169.302 -81.5504 2319.38
-165.609 -77.6384 2208.12
-166.84 -78.2156 2224.54
-168.09 -78.8015 2241.2
-164.27 -74.8754 2129.54
-164.539 -74.6099 2121.99
-164.806 -74.3463 2114.49
-165.371 -74.3463 2114.49
-165.936 -74.3463 2114.49
-166.197 -74.0845 2107.04
-167.067 -74.3463 2114.49
-167.324 -74.0845 2107.04
-167.887 -74.0845 2107.04
-168.451 -74.0845 2107.04
-169.014 -74.0845 2107.04
-169.577 -74.0845 2107.04
-170.141 -74.0845 2107.04
-170.704 -74.0845 2107.04
-171.268 -74.0845 2107.04
-171.831 -74.0845 2107.04
-172.394 -74.0845 2107.04
-172.958 -74.0845 2107.04
-173.852 -74.3463 2114.49
-175.089 -74.8754 2129.54
-176 -75.1429 2137.14
-176.918 -75.4122 2144.8
-178.909 -76.5091 2176
-178.065 -75.4122 2144.8
-181.55 -77.6384 2208.12
-183.284 -78.5075 2232.84
-180.87 -76.2319 2168.12
-186.87 -80.3053 2283.97
-189.147 -81.5504 2319.38
-191.496 -82.8346 2355.91
-194.839 -84.8387 2412.9
-197.86 -86.5844 2462.55
-204.675 -91.0823 2590.48
-217.905 -100.19 2849.52
-212.968 -96.0731 2732.42
-211.892 -94.7748 2695.5
-213.213 -95.2036 2707.69
-217.037 -97.4074 2770.37
-218.419 -97.8605 2783.26
-218.519 -97.4074 2770.37
-217.982 -96.5138 2744.95
-220 -97.4074 2770.37
-218.182 -95.6364 2720
-216.429 -93.9286 2671.43
-220.917 -96.5138 2744.95
-202.055 -83.1621 2365.22
-202.205 -82.8346 2355.91
-197.736 -79.3962 2258.11
-194.872 -77.0696 2191.94
-194.618 -76.5091 2176
-199.547 -79.3962 2258.11
-193.714 -75.1429 2137.14
-196.364 -76.5091 2176
-194.448 -74.8754 2129.54
-194.61 -74.6099 2121.99
-196 -75.1429 2137.14
-195.336 -74.3463 2114.49
-195.901 -74.3463 2114.49
-196.466 -74.3463 2114.49
-197.032 -74.3463 2114.49
47.6471 -76.7647 2200
47.0588 -76.7647 2200
46.4706 -76.7647 2200
45.8824 -76.7647 2200
45.2941 -76.7647 2200
44.7059 -76.7647 2200
44.1176 -76.7647 2200
43.5294 -76.7647 2200
42.9412 -76.7647 2200
42.3529 -76.7647 2200
41.7647 -76.7647 2200
41.1765 -76.7647 2200
40.5882 -76.7647 2200
39.5604 -76.4835 2191.94
38.9744 -76.4835 2191.94
38.3883 -76.4835 2191.94
37.8022 -76.4835 2191.94
37.2161 -76.4835 2191.94
36.63 -76.4835 2191.94
36.044 -76.4835 2191.94
35.4579 -76.4835 2191.94
34.8718 -76.4835 2191.94
33.8686 -76.2044 2183.94
33.2847 -76.2044 2183.94
32.7007 -76.2044 2183.94
32.1168 -76.2044 2183.94
31.5328 -76.2044 2183.94
30.9489 -76.2044 2183.94
30.365 -76.2044 2183.94
29.781 -76.2044 2183.94
29.1971 -76.2044 2183.94
28.6131 -76.2044 2183.94
28.0292 -76.2044 2183.94
27.0545 -75.9273 2176
26.4727 -75.9273 2176
25.8909 -75.9273 2176
25.3091 -75.9273 2176
24.7273 -75.9273 2176
24.1455 -75.9273 2176
23.5636 -75.9273 2176
22.9818 -75.9273 2176
22.4 -75.9273 2176
21.8182 -75.9273 2176
20.8696 -75.6522 2168.12
20.2899 -75.6522 2168.12
19.7101 -75.6522 2168.12
19.1304 -75.6522 2168.12
18.5507 -75.6522 2168.12
17.971 -75.6522 2168.12
17.3913 -75.6522 2168.12
16.8116 -75.6522 2168.12
16.2319 -75.6522 2168.12
15.6522 -75.6522 2168.12
15.0725 -75.6522 2168.12
14.4928 -75.6522 2168.12
13.574 -75.3791 2160.29
12.9964 -75.3791 2160.29
12.4188 -75.3791 2160.29
11.8412 -75.3791 2160.29
11.2635 -75.3791 2160.29
10.6859 -75.3791 2160.29
10.1083 -75.3791 2160.29
9.53069 -75.3791 2160.29
8.63309 -75.1079 2152.52
8.05755 -75.1079 2152.52
7.48201 -75.1079 2152.52
6.90647 -75.1079 2152.52
6.33094 -75.1079 2152.52
5.7554 -75.1079 2152.52
5.17986 -75.1079 2152.52
4.60432 -75.1079 2152.52
4.02878 -75.1079 2152.52
3.45324 -75.1079 2152.52
2.8777 -75.1079 2152.52
2.00717 -74.8387 2144.8
1.43369 -74.8387 2144.8
0.860215 -74.8387 2144.8
0.286738 -74.8387 2144.8
-0.286738 -74.8387 2144.8
-0.860215 -74.8387 2144.8
-1.43369 -74.8387 2144.8
-2.00717 -74.8387 2144.8
-2.58065 -74.8387 2144.8
-3.15412 -74.8387 2144.8
-3.7276 -74.8387 2144.8
-4.30108 -74.8387 2144.8
-4.87455 -74.8387 2144.8
-5.71429 -74.5714 2137.14
-6.28571 -74.5714 2137.14
-6.85714 -74.5714 2137.14
-7.42857 -74.5714 2137.14
-8 -74.5714 2137.14
-8.57143 -74.5714 2137.14
-9.14286 -74.5714 2137.14
-9.71429 -74.5714 2137.14
-10.2857 -74.5714 2137.14
-10.8571 -74.5714 2137.14
-11.6726 -74.306 2129.54
-12.242 -74.306 2129.54
-12.8114 -74.306 2129.54
-13.617 -74.0426 2121.99
-14.1844 -74.0426 2121.99
-14.9823 -73.7809 2114.49
-15.7746 -73.5211 2107.04
-16.338 -73.5211 2107.04
-17.1228 -73.2632 2099.65
-18.3333 -72.5 2077.78
-19.1003 -72.2491 2070.59
-19.2334 -72.7526 2085.02
-20.8219 -71.5068 2049.32
-20.7612 -72.2491 2070.59
-21.5172 -72 2063.45
