-123.547 -23.2416 1829.97
-123.902 -23.1707 1824.39
-124.39 -23.1707 1824.39
-124.878 -23.1707 1824.39
-125.366 -23.1707 1824.39
-125.854 -23.1707 1824.39
-126.341 -23.1707 1824.39
-126.829 -23.1707 1824.39
-127.317 -23.1707 1824.39
-127.805 -23.1707 1824.39
-128.44 -23.2416 1829.97
-128.93 -23.2416 1829.97
-129.419 -23.2416 1829.97
-129.908 -23.2416 1829.97
-130.398 -23.2416 1829.97
-130.887 -23.2416 1829.97
-131.376 -23.2416 1829.97
-131.865 -23.2416 1829.97
-132.355 -23.2416 1829.97
-132.844 -23.2416 1829.97
-133.333 -23.2416 1829.97
-133.988 -23.3129 1835.58
-134.479 -23.3129 1835.58
-134.969 -23.3129 1835.58
-135.46 -23.3129 1835.58
-135.951 -23.3129 1835.58
-136.442 -23.3129 1835.58
-136.933 -23.3129 1835.58
-137.423 -23.3129 1835.58
-137.914 -23.3129 1835.58
-138.405 -23.3129 1835.58
-138.896 -23.3129 1835.58
-139.387 -23.3129 1835.58
-139.877 -23.3129 1835.58
-140.368 -23.3129 1835.58
-140.859 -23.3129 1835.58
-141.35 -23.3129 1835.58
-141.84 -23.3129 1835.58
-142.331 -23.3129 1835.58
-142.822 -23.3129 1835.58
-143.313 -23.3129 1835.58
-143.804 -23.3129 1835.58
-144.294 -23.3129 1835.58
-144.785 -23.3129 1835.58
-145.276 -23.3129 1835.58
-145.767 -23.3129 1835.58
-146.258 -23.3129 1835.58
-146.748 -23.3129 1835.58
-147.239 -23.3129 1835.58
-147.73 -23.3129 1835.58
-148.221 -23.3129 1835.58
-148.712 -23.3129 1835.58
-149.415 -23.3846 1841.23
-149.693 -23.3129 1835.58
-150.184 -23.3129 1835.58
-150.892 -23.3846 1841.23
-151.385 -23.3846 1841.23
-151.877 -23.3846 1841.23
-152.593 -23.4568 1846.91
-153.313 -23.5294 1852.63
-154.037 -23.6025 1858.39
-155.235 -23.8245 1875.86
-156.456 -24.0506 1893.67
-157.7 -24.2812 1911.82
-159.739 -24.7557 1949.19
-161.053 -25 1968.42
-162.392 -25.2492 1988.04
-164.04 -25.5892 2014.81
-166.027 -26.0274 2049.32
-179.921 -30.0395 2365.22
-182.169 -30.5221 2403.21
-170.141 -26.7606 2107.04
-185.143 -31.0204 2442.45
-184.096 -30.5221 2403.21
-184.32 -30.4 2393.6
-183.307 -29.9213 2355.91
-176.703 -27.8388 2191.94
-176.934 -27.7372 2183.94
-175.429 -27.1429 2137.14
-175.319 -26.9504 2121.99
-175.548 -26.8551 2114.49
-175.775 -26.7606 2107.04
-176.338 -26.7606 2107.04
-176.901 -26.7606 2107.04
-177.465 -26.7606 2107.04
-178.028 -26.7606 2107.04
-178.592 -26.7606 2107.04
-179.155 -26.7606 2107.04
-179.718 -26.7606 2107.04
-180.282 -26.7606 2107.04
-180.845 -26.7606 2107.04
-181.408 -26.7606 2107.04
-181.972 -26.7606 2107.04
-182.535 -26.7606 2107.04
-183.099 -26.7606 2107.04
-183.662 -26.7606 2107.04
-184.225 -26.7606 2107.04
-184.789 -26.7606 2107.04
-185.352 -26.7606 2107.04
-185.915 -26.7606 2107.04
-186.479 -26.7606 2107.04
-187.42 -26.8551 2114.49
-188.369 -26.9504 2121.99
-188.936 -26.9504 2121.99
-190.681 -27.2401 2144.8
-203.175 -30.1587 2374.6
-202.353 -29.8039 2346.67
-210.124 -31.5353 2482.99
-212.437 -31.9328 2514.29
-215.966 -32.618 2568.24
-215.489 -32.3404 2546.38
-220.969 -33.4802 2636.12
-236.117 -36.8932 2904.85
-240 -37.6238 2962.38
-240.792 -37.6238 2962.38
-241.584 -37.6238 2962.38
-240 -37.0732 2919.02
-243.98 -37.8109 2977.11
-239.231 -36.5385 2876.92
-239.234 -36.3636 2863.16
-238.483 -36.019 2836.02
-236.279 -35.3488 2783.26
-221.255 -31.7992 2503.77
-217.328 -30.7692 2422.67
-216.867 -30.5221 2403.21
46.6187 -26.7626 2152.52
46.0432 -26.7626 2152.52
44.1281 -26.4769 2129.54
44.4444 -26.6667 2144.8
43.4286 -26.5714 2137.14
43.741 -26.7626 2152.52
42.724 -26.6667 2144.8
42.5899 -26.7626 2152.52
42.0144 -26.7626 2152.52
41.4388 -26.7626 2152.52
40.8633 -26.7626 2152.52
40.2878 -26.7626 2152.52
39.2832 -26.6667 2144.8
39.1367 -26.7626 2152.52
38.5612 -26.7626 2152.52
37.9856 -26.7626 2152.52
37.4101 -26.7626 2152.52
36 -26.5714 2137.14
36.259 -26.7626 2152.52
35.6835 -26.7626 2152.52
35.1079 -26.7626 2152.52
34.5324 -26.7626 2152.52
33.5484 -26.6667 2144.8
32.9749 -26.6667 2144.8
32.4014 -26.6667 2144.8
31.828 -26.6667 2144.8
31.2545 -26.6667 2144.8
30.681 -26.6667 2144.8
30.1075 -26.6667 2144.8
29.5341 -26.6667 2144.8
28.5714 -26.5714 2137.14
28.3871 -26.6667 2144.8
27.4286 -26.5714 2137.14
26.8571 -26.5714 2137.14
26.2857 -26.5714 2137.14
25.3381 -26.4769 2129.54
24.7687 -26.4769 2129.54
24.1993 -26.4769 2129.54
23.2624 -26.383 2121.99
16.5333 -24.8 1994.67
14.7368 -24.4737 1968.42
14.2105 -24.4737 1968.42
12.7687 -24.2345 1949.19
12.2476 -24.2345 1949.19
11.4286 -24.1558 1942.86
10.6149 -24.0777 1936.57
10.3896 -24.1558 1942.86
9.87013 -24.1558 1942.86
9.64169 -24.2345 1949.19
9.41176 -24.3137 1955.56
9.18033 -24.3934 1961.97
9.83389 -24.7176 1988.04
9.30233 -24.7176 1988.04
9.36455 -24.8829 2001.34
11.9031 -25.7439 2070.59
8.88889 -25.0505 2014.81
11.1111 -25.8333 2077.78
11.1888 -26.014 2092.31
11.5901 -26.2898 2114.49
11.3475 -26.383 2121.99
10.7801 -26.383 2121.99
10.2128 -26.383 2121.99
9.64539 -26.383 2121.99
9.07801 -26.383 2121.99
8.51064 -26.383 2121.99
7.94326 -26.383 2121.99
5.85366 -25.9233 2085.02
6.50177 -26.2898 2114.49
5.9364 -26.2898 2114.49
5.37102 -26.2898 2114.49
4.80565 -26.2898 2114.49
4.24028 -26.2898 2114.49
3.38028 -26.1972 2107.04
2.52632 -26.1053 2099.65
1.67832 -26.014 2092.31
0.276817 -25.7439 2070.59
-2.68456 -24.9664 2008.05
-2.44068 -25.2203 2028.47
-6.23377 -24.1558 1942.86
-4.8 -24.8 1994.67
-11.7073 -22.6829 1824.39
-13.6119 -22.209 1786.27
-14.6746 -22.0118 1770.41
-17.7273 -21.1364 1700
-19.0476 -20.8403 1676.19
-19.3258 -20.8989 1680.9
-19.7753 -20.8989 1680.9
-18.1395 -21.6279 1739.53
-17.6991 -21.9469 1765.19
-14.704 -23.1776 1864.17
-14.3849 -23.47 1887.7
-13.4194 -24 1930.32
-11.9601 -24.7176 1988.04
-11.3514 -25.1351 2021.62
-11.4286 -25.3061 2035.37
-12.4324 -25.1351 2021.62
-13.1987 -25.0505 2014.81
-13.5135 -25.1351 2021.62
-14.2761 -25.0505 2014.81
-15.2508 -24.8829 2001.34
-16.2126 -24.7176 1988.04
-18.5806 -24 1930.32
-19.6805 -23.77 1911.82
-20.1917 -23.77 1911.82
-20.7029 -23.77 1911.82
-21.2141 -23.77 1911.82
-21.7252 -23.77 1911.82
-22.2364 -23.77 1911.82
-22.7476 -23.77 1911.82
-23.2588 -23.77 1911.82
-23.77 -23.77 1911.82
-24.2812 -23.77 1911.82
-24.7923 -23.77 1911.82
-25.1282 -23.8462 1917.95
-25.4662 -23.9228 1924.12
-25.9807 -23.9228 1924.12
-26.3226 -24 1930.32
-26.6667 -24.0777 1936.57
-25.9603 -24.6358 1981.46
-26.3123 -24.7176 1988.04
-26.4883 -24.8829 2001.34
-27.0234 -24.8829 2001.34
-27.5585 -24.8829 2001.34
-27.9195 -24.9664 2008.05
-28.2828 -25.0505 2014.81
-28.6486 -25.1351 2021.62
-29.1892 -25.1351 2021.62
-29.7297 -25.1351 2021.62
-30.2703 -25.1351 2021.62
-30.8108 -25.1351 2021.62
-31.3514 -25.1351 2021.62
-31.8919 -25.1351 2021.62
-32.4324 -25.1351 2021.62
-32.8136 -25.2203 2028.47
-33.3559 -25.2203 2028.47
-33.8983 -25.2203 2028.47
-34.4407 -25.2203 2028.47
-34.9831 -25.2203 2028.47
-35.5254 -25.2203 2028.47
-36.2162 -25.1351 2021.62
-36.7568 -25.1351 2021.62
-37.7258 -24.8829 2001.34
-39.4805 -24.1558 1942.86
-38.6577 -24.9664 2008.05
-42.3529 -23.0341 1852.63
-42.963 -22.963 1846.91
-44.0122 -22.614 1818.84
-44.9249 -22.3423 1797
-44.9848 -22.614 1818.84
-46.1905 -22.1429 1780.95
-46.6667 -22.1429 1780.95
-47.1429 -22.1429 1780.95
-47.4251 -22.2754 1791.62
-47.9042 -22.2754 1791.62
-47.8049 -22.6829 1824.39
-48.4848 -22.5455 1813.33
-48.3951 -22.963 1846.91
-48.5 -23.25 1870
-48.6076 -23.5443 1893.67
-48.5161 -24 1930.32
-48.3168 -24.5545 1974.92
-47.7816 -25.3925 2042.32
-47.4386 -26.1053 2099.65
-47.1942 -26.7626 2152.52
-46.8148 -27.5556 2216.3
-46.5399 -28.289 2275.29
-45.9843 -29.2913 2355.91
-44.6667 -31 2493.33
-46.9841 -29.5238 2374.6
-44.2105 -32.6316 2624.56
-44.6018 -32.9204 2647.79
-45.3097 -32.9204 2647.79
-48.7805 -30.2439 2432.52
-48 -31.6596 2546.38
-54.2657 -26.014 2092.31
-55.5102 -25.3061 2035.37
-56.918 -24.3934 1961.97
-57.6623 -24.1558 1942.86
-58.5987 -23.6943 1905.73
-59.2405 -23.5443 1893.67
-60.1242 -23.1056 1858.39
-60.6811 -23.0341 1852.63
-61.1765 -23.0341 1852.63
-61.6149 -23.1056 1858.39
-62.1118 -23.1056 1858.39
-62.6087 -23.1056 1858.39
-63.053 -23.1776 1864.17
-63.5 -23.25 1870
-63.9498 -23.3229 1875.86
-64.4025 -23.3962 1881.76
-64.2105 -24.4737 1968.42
-64.7368 -24.4737 1968.42
-65.2145 -24.5545 1974.92
-65.6954 -24.6358 1981.46
-66.2252 -24.6358 1981.46
-66.755 -24.6358 1981.46
-67.2425 -24.7176 1988.04
-67.8146 -24.6358 1981.46
-68.3444 -24.6358 1981.46
-68.8742 -24.6358 1981.46
-69.404 -24.6358 1981.46
-69.9338 -24.6358 1981.46
-70.4636 -24.6358 1981.46
-70.9934 -24.6358 1981.46
-71.5232 -24.6358 1981.46
-72.0792 -24.5545 1974.92
-72.6073 -24.5545 1974.92
-73.1353 -24.5545 1974.92
-73.6634 -24.5545 1974.92
-74.1914 -24.5545 1974.92
-74.7195 -24.5545 1974.92
-75.2475 -24.5545 1974.92
-75.7756 -24.5545 1974.92
-76.3036 -24.5545 1974.92
-76.8317 -24.5545 1974.92
-77.3597 -24.5545 1974.92
-77.8878 -24.5545 1974.92
-78.4158 -24.5545 1974.92
-78.9439 -24.5545 1974.92
-79.4719 -24.5545 1974.92
-80 -24.4737 1968.42
-80.5263 -24.4737 1968.42
-81.0526 -24.4737 1968.42
-81.5789 -24.4737 1968.42
-82.1053 -24.4737 1968.42
-82.6316 -24.4737 1968.42
-83.1579 -24.4737 1968.42
-83.6842 -24.4737 1968.42
-84.2105 -24.4737 1968.42
-84.7368 -24.4737 1968.42
-85.2632 -24.4737 1968.42
-85.7895 -24.4737 1968.42
-86.3158 -24.4737 1968.42
-86.8421 -24.4737 1968.42
-87.3684 -24.4737 1968.42
-87.8947 -24.4737 1968.42
-88.4211 -24.4737 1968.42
-88.9474 -24.4737 1968.42
-89.4737 -24.4737 1968.42
-90.033 -24.5545 1974.92
-90.5611 -24.5545 1974.92
-91.0891 -24.5545 1974.92
-91.6172 -24.5545 1974.92
-92.1452 -24.5545 1974.92
-92.6733 -24.5545 1974.92
-93.2013 -24.5545 1974.92
-93.7748 -24.6358 1981.46
-94.2574 -24.5545 1974.92
-94.7855 -24.5545 1974.92
-95.3135 -24.5545 1974.92
-95.894 -24.6358 1981.46
-96.4784 -24.7176 1988.04
-97.01 -24.7176 1988.04
-97.5415 -24.7176 1988.04
-98.194 -24.8829 2001.34
-98.8552 -25.0505 2014.81
-99.3289 -24.9664 2008.05
-99.7993 -24.8829 2001.34
-100.267 -24.8 1994.67
-100.594 -24.5545 1974.92
-100.779 -24.1558 1942.86
-101.23 -24.0777 1936.57
-101.401 -23.6943 1905.73
-101.703 -23.47 1887.7
-102.278 -23.5443 1893.67
-102.43 -23.1776 1864.17
-102.928 -23.1776 1864.17
-103.427 -23.1776 1864.17
-103.851 -23.1056 1858.39
-104.348 -23.1056 1858.39
-104.845 -23.1056 1858.39
-105.342 -23.1056 1858.39
-105.759 -23.0341 1852.63
-106.335 -23.1056 1858.39
-106.749 -23.0341 1852.63
-107.245 -23.0341 1852.63
-107.74 -23.0341 1852.63
-108.235 -23.0341 1852.63
-108.731 -23.0341 1852.63
-109.226 -23.0341 1852.63
-109.721 -23.0341 1852.63
-110.123 -22.963 1846.91
-110.617 -22.963 1846.91
-111.111 -22.963 1846.91
-111.605 -22.963 1846.91
-112.099 -22.963 1846.91
-112.593 -22.963 1846.91
-113.086 -22.963 1846.91
-113.58 -22.963 1846.91
-113.969 -22.8923 1841.23
-114.462 -22.8923 1841.23
-114.954 -22.8923 1841.23
-115.446 -22.8923 1841.23
-115.938 -22.8923 1841.23
-116.431 -22.8923 1841.23
-116.923 -22.8923 1841.23
-117.415 -22.8923 1841.23
-117.908 -22.8923 1841.23
-118.282 -22.8221 1835.58
-118.773 -22.8221 1835.58
-119.264 -22.8221 1835.58
-119.755 -22.8221 1835.58
-120.245 -22.8221 1835.58
-120.736 -22.8221 1835.58
-121.227 -22.8221 1835.58
-121.59 -22.7523 1829.97
-122.08 -22.7523 1829.97
-122.569 -22.7523 1829.97
-122.927 -22.6829 1824.39
-123.547 -22.7523 1829.97
-123.902 -22.6829 1824.39
-124.39 -22.6829 1824.39
-124.878 -22.6829 1824.39
-125.366 -22.6829 1824.39
-125.854 -22.6829 1824.39
-126.341 -22.6829 1824.39
-126.829 -22.6829 1824.39
-127.317 -22.6829 1824.39
-127.805 -22.6829 1824.39
-128.293 -22.6829 1824.39
-128.93 -22.7523 1829.97
-129.419 -22.7523 1829.97
-129.908 -22.7523 1829.97
-130.398 -22.7523 1829.97
-130.887 -22.7523 1829.97
-131.376 -22.7523 1829.97
-131.865 -22.7523 1829.97
-132.355 -22.7523 1829.97
-132.844 -22.7523 1829.97
-133.333 -22.7523 1829.97
-133.823 -22.7523 1829.97
-134.312 -22.7523 1829.97
-134.801 -22.7523 1829.97
-135.291 -22.7523 1829.97
-135.78 -22.7523 1829.97
-136.442 -22.8221 1835.58
-136.933 -22.8221 1835.58
-137.423 -22.8221 1835.58
-137.914 -22.8221 1835.58
-138.405 -22.8221 1835.58
-138.896 -22.8221 1835.58
-139.387 -22.8221 1835.58
-139.877 -22.8221 1835.58
-140.368 -22.8221 1835.58
-140.859 -22.8221 1835.58
-141.35 -22.8221 1835.58
-141.84 -22.8221 1835.58
-142.331 -22.8221 1835.58
-142.822 -22.8221 1835.58
-143.313 -22.8221 1835.58
-143.804 -22.8221 1835.58
-144.294 -22.8221 1835.58
-144.785 -22.8221 1835.58
-145.276 -22.8221 1835.58
-145.767 -22.8221 1835.58
-146.258 -22.8221 1835.58
-146.748 -22.8221 1835.58
-147.239 -22.8221 1835.58
-147.73 -22.8221 1835.58
-148.221 -22.8221 1835.58
-148.712 -22.8221 1835.58
-149.202 -22.8221 1835.58
-149.693 -22.8221 1835.58
-150.4 -22.8923 1841.23
-150.892 -22.8923 1841.23
-151.385 -22.8923 1841.23
-151.877 -22.8923 1841.23
-152.369 -22.8923 1841.23
-153.086 -22.963 1846.91
-153.808 -23.0341 1852.63
-154.534 -23.1056 1858.39
-155.975 -23.3962 1881.76
-156.962 -23.5443 1893.67
-158.968 -24 1930.32
-159.741 -24.0777 1936.57
-162.392 -24.7176 1988.04
-162.376 -24.5545 1974.92
-167.832 -26.014 2092.31
-166.28 -25.3925 2042.32
-172.847 -27.1533 2183.94
-178.842 -28.7259 2310.42
-180.625 -29.0625 2337.5
-175.646 -27.4539 2208.12
-173.477 -26.6667 2144.8
-175.418 -27.0545 2176
-179.248 -27.9699 2249.62
-179.104 -27.7612 2232.84
-174.752 -26.383 2121.99
-175.319 -26.383 2121.99
-175.548 -26.2898 2114.49
-175.775 -26.1972 2107.04
-176.338 -26.1972 2107.04
-176.901 -26.1972 2107.04
-177.465 -26.1972 2107.04
-178.028 -26.1972 2107.04
-178.592 -26.1972 2107.04
-179.155 -26.1972 2107.04
-179.718 -26.1972 2107.04
-180.282 -26.1972 2107.04
-180.845 -26.1972 2107.04
-181.408 -26.1972 2107.04
-181.972 -26.1972 2107.04
-182.535 -26.1972 2107.04
-183.099 -26.1972 2107.04
-183.662 -26.1972 2107.04
-184.225 -26.1972 2107.04
-184.421 -26.1053 2099.65
-184.982 -26.1053 2099.65
-185.915 -26.1972 2107.04
-186.479 -26.1972 2107.04
-187.042 -26.1972 2107.04
-188.369 -26.383 2121.99
-192.527 -27.2527 2191.94
-203.028 -29.6414 2384.06
-205.668 -30.1215 2422.67
-207.347 -30.3673 2442.45
-210.124 -30.8714 2482.99
-212.996 -31.3924 2524.89
-233.786 -36.1165 2904.85
-222.143 -33.2143 2671.43
-224.144 -33.5135 2695.5
-240 -37.0149 2977.11
-240.796 -37.0149 2977.11
-241.592 -37.0149 2977.11
-242.388 -37.0149 2977.11
-240 -36.2927 2919.02
-241.561 -36.2927 2919.02
-234.791 -34.6047 2783.26
-240.769 -35.7692 2876.92
-237.009 -34.7664 2796.26
-224.274 -31.7949 2557.26
-221.925 -31.1297 2503.77
-216.32 -29.76 2393.6
46.6187 -26.1871 2152.52
46.0432 -26.1871 2152.52
45.4676 -26.1871 2152.52
44.8921 -26.1871 2152.52
44.3165 -26.1871 2152.52
43.741 -26.1871 2152.52
43.1655 -26.1871 2152.52
41.2811 -25.9075 2129.54
41.5771 -26.0932 2144.8
41.4388 -26.1871 2152.52
40.8633 -26.1871 2152.52
40.2878 -26.1871 2152.52
39.7122 -26.1871 2152.52
39.1367 -26.1871 2152.52
38.5612 -26.1871 2152.52
37.5627 -26.0932 2144.8
37.4101 -26.1871 2152.52
36.4158 -26.0932 2144.8
36.259 -26.1871 2152.52
32.8421 -25.5439 2099.65
34.6953 -26.0932 2144.8
33.7143 -26 2137.14
33.9568 -26.1871 2152.52
33.3813 -26.1871 2152.52
32.8058 -26.1871 2152.52
31.828 -26.0932 2144.8
30.8571 -26 2137.14
30.681 -26.0932 2144.8
28.5512 -25.7244 2114.49
29.1429 -26 2137.14
28.9606 -26.0932 2144.8
28.3871 -26.0932 2144.8
27.8136 -26.0932 2144.8
26.8571 -26 2137.14
26.2857 -26 2137.14
25.7143 -26 2137.14
24.3972 -25.8156 2121.99
23.8298 -25.8156 2121.99
21.1111 -25.2778 2077.78
16.8562 -24.3478 2001.34
15.3642 -24.106 1981.46
14.2105 -23.9474 1968.42
12.7687 -23.7134 1949.19
11.9481 -23.6364 1942.86
11.1327 -23.5599 1936.57
10.6149 -23.5599 1936.57
10.0971 -23.5599 1936.57
9.87013 -23.6364 1942.86
9.35065 -23.6364 1942.86
9.12052 -23.7134 1949.19
8.88889 -23.7908 1955.56
8.65574 -23.8689 1961.97
8.71287 -24.0264 1974.92
8.47682 -24.106 1981.46
10.0339 -24.678 2028.47
10.7216 -25.0172 2056.36
9.86301 -24.9315 2049.32
11.831 -25.6338 2107.04
11.5901 -25.7244 2114.49
10.7042 -25.6338 2107.04
10.4594 -25.7244 2114.49
9.57746 -25.6338 2107.04
9.64539 -25.8156 2121.99
8.4507 -25.6338 2107.04
8.19788 -25.7244 2114.49
7.63251 -25.7244 2114.49
7.06714 -25.7244 2114.49
6.50177 -25.7244 2114.49
5.9364 -25.7244 2114.49
5.37102 -25.7244 2114.49
4.80565 -25.7244 2114.49
4.24028 -25.7244 2114.49
3.67491 -25.7244 2114.49
2.52632 -25.5439 2099.65
1.67832 -25.4545 2092.31
-0 -25.1034 2063.45
-1.89831 -24.678 2028.47
-1.10345 -25.1034 2063.45
-7.17949 -23.3333 1917.95
-9.71963 -22.6791 1864.17
-12.1212 -22.0606 1813.33
-13.6119 -21.7313 1786.27
-17.094 -20.7407 1704.84
-18.2535 -20.507 1685.63
-19.0476 -20.3922 1676.19
-19.4958 -20.3922 1676.19
-16.7552 -21.4749 1765.19
-18.4971 -21.0405 1729.48
-18.0645 -21.349 1754.84
-16.0976 -22.1951 1824.39
-14.7962 -22.8213 1875.86
-13.8462 -23.3333 1917.95
-12.4092 -24.0264 1974.92
-11.8121 -24.4295 2008.05
-11.661 -24.678 2028.47
-12.2034 -24.678 2028.47
-12.7458 -24.678 2028.47
-13.7374 -24.5118 2014.81
-14.4966 -24.4295 2008.05
-15.4667 -24.2667 1994.67
-16.2126 -24.186 1988.04
-18.9744 -23.3333 1917.95
-19.4872 -23.3333 1917.95
-20.1917 -23.2588 1911.82
-20.7029 -23.2588 1911.82
-21.2141 -23.2588 1911.82
-21.7252 -23.2588 1911.82
-22.2364 -23.2588 1911.82
-22.7476 -23.2588 1911.82
-23.2588 -23.2588 1911.82
-23.77 -23.2588 1911.82
-24.2812 -23.2588 1911.82
-24.7923 -23.2588 1911.82
-25.1282 -23.3333 1917.95
-25.8147 -23.2588 1911.82
-26.1538 -23.3333 1917.95
-26.4952 -23.4084 1924.12
-27.0096 -23.4084 1924.12
-27.013 -23.6364 1942.86
-26.3123 -24.186 1988.04
-26.6667 -24.2667 1994.67
-27.2 -24.2667 1994.67
-27.5585 -24.3478 2001.34
-27.9195 -24.4295 2008.05
-28.2828 -24.5118 2014.81
-28.8215 -24.5118 2014.81
-29.1892 -24.5946 2021.62
-29.899 -24.5118 2014.81
-30.4377 -24.5118 2014.81
-30.9764 -24.5118 2014.81
-31.3514 -24.5946 2021.62
-31.8919 -24.5946 2021.62
-32.4324 -24.5946 2021.62
-32.973 -24.5946 2021.62
-33.3559 -24.678 2028.47
-33.8983 -24.678 2028.47
-34.5946 -24.5946 2021.62
-35.1351 -24.5946 2021.62
-35.6757 -24.5946 2021.62
-36.3636 -24.5118 2014.81
-37.047 -24.4295 2008.05
-37.5839 -24.4295 2008.05
-38.1208 -24.4295 2008.05
-38.796 -24.3478 2001.34
-42 -22.75 1870
-43.5258 -22.1277 1818.84
-44.0122 -22.1277 1818.84
-45.0299 -21.7964 1791.62
-45.7143 -21.6667 1780.95
-46.1905 -21.6667 1780.95
-46.7656 -21.6024 1775.67
-47.2404 -21.6024 1775.67
-47.619 -21.6667 1780.95
-48 -21.7313 1786.27
-48.3832 -21.7964 1791.62
-48.6747 -21.9277 1802.41
-48.7805 -22.1951 1824.39
-48.8889 -22.4691 1846.91
-48.9028 -22.8213 1875.86
-48.8179 -23.2588 1911.82
-48.932 -23.5599 1936.57
-48 -24.678 2028.47
-47.3239 -25.6338 2107.04
-47.0758 -26.2816 2160.29
-46.5672 -27.1642 2232.84
-45.8915 -28.2171 2319.38
-44.5902 -29.8361 2452.46
-43.9149 -30.9787 2546.38
-43.6681 -31.7904 2613.1
-43.8938 -32.2124 2647.79
-43.964 -32.7928 2695.5
-46.2069 -31.3793 2579.31
-45.8667 -32.3556 2659.56
-48.4034 -30.5882 2514.29
-53.5252 -26.1871 2152.52
-55.8389 -24.4295 2008.05
-56.8421 -23.9474 1968.42
-57.7346 -23.5599 1936.57
-58.1107 -23.7134 1949.19
-59.5639 -22.6791 1864.17
-60.1858 -22.5387 1852.63
-60.6811 -22.5387 1852.63
-61.1765 -22.5387 1852.63
-61.6149 -22.6087 1858.39
-62.1118 -22.6087 1858.39
-62.6087 -22.6087 1858.39
-63.053 -22.6791 1864.17
-63.5514 -22.6791 1864.17
-64 -22.75 1870
-64.4514 -22.8213 1875.86
-64.4156 -23.6364 1942.86
-64.7368 -23.9474 1968.42
-65.2145 -24.0264 1974.92
-65.6954 -24.106 1981.46
-66.1794 -24.186 1988.04
-66.711 -24.186 1988.04
-67.2848 -24.106 1981.46
-67.8146 -24.106 1981.46
-68.3444 -24.106 1981.46
-68.8742 -24.106 1981.46
-69.404 -24.106 1981.46
-69.9338 -24.106 1981.46
-70.4636 -24.106 1981.46
-70.9934 -24.106 1981.46
-71.5512 -24.0264 1974.92
-72.0792 -24.0264 1974.92
-72.6073 -24.0264 1974.92
-73.1353 -24.0264 1974.92
-73.6634 -24.0264 1974.92
-74.1914 -24.0264 1974.92
-74.7195 -24.0264 1974.92
-75.2475 -24.0264 1974.92
-75.7756 -24.0264 1974.92
-76.3158 -23.9474 1968.42
-76.8317 -24.0264 1974.92
-77.3684 -23.9474 1968.42
-77.8947 -23.9474 1968.42
-78.4158 -24.0264 1974.92
-78.9439 -24.0264 1974.92
-79.4719 -24.0264 1974.92
-80 -23.8689 1961.97
-80.5246 -23.8689 1961.97
-81.0526 -23.9474 1968.42
-81.5789 -23.9474 1968.42
-82.1053 -23.9474 1968.42
-82.6316 -23.9474 1968.42
-83.1579 -23.9474 1968.42
-83.6842 -23.9474 1968.42
-84.2105 -23.9474 1968.42
-84.7213 -23.8689 1961.97
-85.2632 -23.9474 1968.42
-85.7895 -23.9474 1968.42
-86.3158 -23.9474 1968.42
-86.8421 -23.9474 1968.42
-87.3684 -23.9474 1968.42
-87.8947 -23.9474 1968.42
-88.4211 -23.9474 1968.42
-88.9474 -23.9474 1968.42
-89.4737 -23.9474 1968.42
-90 -23.9474 1968.42
-90.5263 -23.9474 1968.42
-91.0526 -23.9474 1968.42
-91.6172 -24.0264 1974.92
-92.1053 -23.9474 1968.42
-92.6316 -23.9474 1968.42
-93.1579 -23.9474 1968.42
-93.7294 -24.0264 1974.92
-94.2574 -24.0264 1974.92
-94.7368 -23.9474 1968.42
-95.3642 -24.106 1981.46
-95.894 -24.106 1981.46
-96.4784 -24.186 1988.04
-97.01 -24.186 1988.04
-97.5415 -24.186 1988.04
-98.1333 -24.2667 1994.67
-98.7919 -24.4295 2008.05
-99.3289 -24.4295 2008.05
-99.7333 -24.2667 1994.67
-100.199 -24.186 1988.04
-100.594 -24.0264 1974.92
-100.984 -23.8689 1961.97
-101.093 -23.4084 1924.12
-101.199 -22.9653 1887.7
-101.703 -22.9653 1887.7
-102 -22.75 1870
-102.571 -22.8213 1875.86
-102.928 -22.6791 1864.17
-103.354 -22.6087 1858.39
-103.851 -22.6087 1858.39
-104.348 -22.6087 1858.39
-104.845 -22.6087 1858.39
-105.342 -22.6087 1858.39
-105.759 -22.5387 1852.63
-106.254 -22.5387 1852.63
-106.749 -22.5387 1852.63
-107.245 -22.5387 1852.63
-107.74 -22.5387 1852.63
-108.235 -22.5387 1852.63
-108.642 -22.4691 1846.91
-109.226 -22.5387 1852.63
-109.63 -22.4691 1846.91
-110.123 -22.4691 1846.91
-110.617 -22.4691 1846.91
-111.111 -22.4691 1846.91
-111.605 -22.4691 1846.91
-112.099 -22.4691 1846.91
-112.593 -22.4691 1846.91
-113.086 -22.4691 1846.91
-113.477 -22.4 1841.23
-113.969 -22.4 1841.23
-114.462 -22.4 1841.23
-114.954 -22.4 1841.23
-115.446 -22.4 1841.23
-115.938 -22.4 1841.23
-116.431 -22.4 1841.23
-116.923 -22.4 1841.23
-117.415 -22.4 1841.23
-117.791 -22.3313 1835.58
-118.282 -22.3313 1835.58
-118.773 -22.3313 1835.58
-119.264 -22.3313 1835.58
-119.755 -22.3313 1835.58
-120.245 -22.3313 1835.58
-120.612 -22.263 1829.97
-121.101 -22.263 1829.97
-121.59 -22.263 1829.97
-122.08 -22.263 1829.97
-122.569 -22.263 1829.97
-122.927 -22.1951 1824.39
-123.415 -22.1951 1824.39
-123.902 -22.1951 1824.39
-124.39 -22.1951 1824.39
-124.878 -22.1951 1824.39
-125.366 -22.1951 1824.39
-125.854 -22.1951 1824.39
-126.341 -22.1951 1824.39
-126.829 -22.1951 1824.39
-127.317 -22.1951 1824.39
-127.805 -22.1951 1824.39
-128.293 -22.1951 1824.39
-128.93 -22.263 1829.97
-129.419 -22.263 1829.97
-129.908 -22.263 1829.97
-130.398 -22.263 1829.97
-130.887 -22.263 1829.97
-131.376 -22.263 1829.97
-131.865 -22.263 1829.97
-132.355 -22.263 1829.97
-132.844 -22.263 1829.97
-133.333 -22.263 1829.97
-133.823 -22.263 1829.97
-134.312 -22.263 1829.97
-134.801 -22.263 1829.97
-135.291 -22.263 1829.97
-135.78 -22.263 1829.97
-136.269 -22.263 1829.97
-136.933 -22.3313 1835.58
-137.248 -22.263 1829.97
-137.737 -22.263 1829.97
-138.405 -22.3313 1835.58
-138.896 -22.3313 1835.58
-139.205 -22.263 1829.97
-139.694 -22.263 1829.97
-140.368 -22.3313 1835.58
-140.859 -22.3313 1835.58
-141.35 -22.3313 1835.58
-141.84 -22.3313 1835.58
-142.331 -22.3313 1835.58
-142.822 -22.3313 1835.58
-143.313 -22.3313 1835.58
-143.804 -22.3313 1835.58
-144.294 -22.3313 1835.58
-144.785 -22.3313 1835.58
-145.276 -22.3313 1835.58
-145.767 -22.3313 1835.58
-146.258 -22.3313 1835.58
-146.748 -22.3313 1835.58
-147.239 -22.3313 1835.58
-147.73 -22.3313 1835.58
-148.221 -22.3313 1835.58
-148.712 -22.3313 1835.58
-149.202 -22.3313 1835.58
-149.693 -22.3313 1835.58
-150.4 -22.4 1841.23
-150.892 -22.4 1841.23
-151.385 -22.4 1841.23
-151.656 -22.3313 1835.58
-152.369 -22.4 1841.23
-152.638 -22.3313 1835.58
-153.354 -22.4 1841.23
-154.074 -22.4691 1846.91
-155.265 -22.6791 1864.17
-155.528 -22.6087 1858.39
-157.714 -23.1111 1899.68
-158.722 -23.2588 1911.82
-160 -23.4839 1930.32
-161.303 -23.7134 1949.19
-165.734 -24.8464 2042.32
-164.267 -24.2667 1994.67
-171.841 -26.2816 2160.29
-176.604 -27.4717 2258.11
-168.828 -25.1034 2063.45
-171.59 -25.7244 2114.49
-171.509 -25.5439 2099.65
-172.07 -25.5439 2099.65
-174.624 -26.0932 2144.8
-175.197 -26.0932 2144.8
-176.115 -26.1871 2152.52
-174.982 -25.7244 2114.49
-175.211 -25.6338 2107.04
-175.775 -25.6338 2107.04
-176.338 -25.6338 2107.04
-176.901 -25.6338 2107.04
-177.465 -25.6338 2107.04
-178.028 -25.6338 2107.04
-178.592 -25.6338 2107.04
-179.155 -25.6338 2107.04
-179.718 -25.6338 2107.04
-180.282 -25.6338 2107.04
-180.845 -25.6338 2107.04
-181.408 -25.6338 2107.04
-181.972 -25.6338 2107.04
-182.535 -25.6338 2107.04
-182.737 -25.5439 2099.65
-183.298 -25.5439 2099.65
-183.86 -25.5439 2099.65
-184.421 -25.5439 2099.65
-184.982 -25.5439 2099.65
-185.915 -25.6338 2107.04
-186.479 -25.6338 2107.04
-187.042 -25.6338 2107.04
-187.606 -25.6338 2107.04
-200.945 -28.6614 2355.91
-204.516 -29.3548 2412.9
-206.179 -29.5935 2432.52
-209.461 -30.2075 2482.99
-213.447 -30.9787 2546.38
-221.982 -32.7928 2695.5
-225.991 -33.5484 2757.6
-222.78 -32.6457 2683.41
-227.465 -33.5484 2757.6
-241.592 -36.2189 2977.11
-241.584 -36.0396 2962.38
-243.168 -36.0396 2962.38
-243.153 -35.8621 2947.78
-242.341 -35.5122 2919.02
-242.33 -35.3398 2904.85
-241.538 -35 2876.92
-228.722 -32.0705 2636.12
-237.037 -33.7037 2770.37
-228.174 -31.6522 2601.74
46.1649 -25.5197 2144.8
45.5914 -25.5197 2144.8
44.5714 -25.4286 2137.14
44.4444 -25.5197 2144.8
41.6901 -25.0704 2107.04
43.2975 -25.5197 2144.8
42.724 -25.5197 2144.8
41.7143 -25.4286 2137.14
41.5771 -25.5197 2144.8
41.0036 -25.5197 2144.8
40.4301 -25.5197 2144.8
39.8566 -25.5197 2144.8
39.2832 -25.5197 2144.8
37.8648 -25.3381 2129.54
37.2954 -25.3381 2129.54
33.4948 -24.6367 2070.59
35.3357 -25.159 2114.49
35.5872 -25.3381 2129.54
35.0178 -25.3381 2129.54
32.8421 -24.9825 2099.65
33.879 -25.3381 2129.54
33.7143 -25.4286 2137.14
32.7402 -25.3381 2129.54
32.5714 -25.4286 2137.14
29.2683 -24.8084 2085.02
30.6383 -25.2482 2121.99
27.7778 -24.7222 2077.78
30.2857 -25.4286 2137.14
27.7895 -24.9825 2099.65
28.7544 -25.3381 2129.54
28.1851 -25.3381 2129.54
27.6157 -25.3381 2129.54
23.7241 -24.5517 2063.45
26.0993 -25.2482 2121.99
25.159 -25.159 2114.49
23.4965 -24.8951 2092.31
24.0283 -25.159 2114.49
23.0986 -25.0704 2107.04
16.7442 -23.6545 1988.04
16.2126 -23.6545 1988.04
14.7368 -23.4211 1968.42
13.9016 -23.3443 1961.97
12.7687 -23.1922 1949.19
11.9481 -23.1169 1942.86
11.1327 -23.0421 1936.57
10.6149 -23.0421 1936.57
10.0971 -23.0421 1936.57
9.57929 -23.0421 1936.57
9.35065 -23.1169 1942.86
8.83117 -23.1169 1942.86
8.59935 -23.1922 1949.19
8.36601 -23.268 1955.56
8.13115 -23.3443 1961.97
7.89474 -23.4211 1968.42
9.72973 -24.0541 2021.62
9.18919 -24.0541 2021.62
9.55631 -24.3003 2042.32
10.5556 -24.7222 2077.78
9.68858 -24.6367 2070.59
10.0699 -24.8951 2092.31
9.51049 -24.8951 2092.31
7.42268 -24.4674 2056.36
7.17241 -24.5517 2063.45
7.83217 -24.8951 2092.31
6.06897 -24.5517 2063.45
5.22337 -24.4674 2056.36
6.45614 -24.9825 2099.65
5.89474 -24.9825 2099.65
5.03497 -24.8951 2092.31
4.77193 -24.9825 2099.65
4.80565 -25.159 2114.49
4.24028 -25.159 2114.49
3.38028 -25.0704 2107.04
2.23776 -24.8951 2092.31
1.67832 -24.8951 2092.31
-0 -24.5517 2063.45
-2.42424 -23.9731 2014.81
-4.48845 -23.4983 1974.92
-7.87302 -22.6032 1899.68
-10.3704 -21.9753 1846.91
-12.5301 -21.4458 1802.41
-14.2012 -21.0651 1770.41
-16.3689 -20.5187 1724.5
-15.9064 -20.8187 1749.71
-18.5311 -20.113 1690.4
-19.4958 -19.944 1676.19
-19.7753 -20 1680.9
-19.2 -20.3429 1709.71
-19.1354 -20.5187 1724.5
-15.9021 -21.7737 1829.97
-16.3914 -21.7737 1829.97
-15.0943 -22.3899 1881.76
-12.4092 -23.4983 1974.92
-11.8121 -23.8926 2008.05
-12.8 -23.7333 1994.67
-12.2034 -24.1356 2028.47
-13.4228 -23.8926 2008.05
-13.7374 -23.9731 2014.81
-14.7157 -23.8127 2001.34
-15.2508 -23.8127 2001.34
-16.4238 -23.5762 1981.46
-18.9744 -22.8205 1917.95
-19.4872 -22.8205 1917.95
-20 -22.8205 1917.95
-20.7029 -22.7476 1911.82
-21.2141 -22.7476 1911.82
-21.7252 -22.7476 1911.82
-22.2364 -22.7476 1911.82
-22.7476 -22.7476 1911.82
-23.2588 -22.7476 1911.82
-23.77 -22.7476 1911.82
-24.2812 -22.7476 1911.82
-24.7923 -22.7476 1911.82
-25.3035 -22.7476 1911.82
-25.641 -22.8205 1917.95
-25.9807 -22.8939 1924.12
-26.4952 -22.8939 1924.12
-25.7895 -23.4211 1968.42
-27.1845 -23.0421 1936.57
-26.4901 -23.5762 1981.46
-26.8439 -23.6545 1988.04
-27.2 -23.7333 1994.67
-27.5585 -23.8127 2001.34
-27.9195 -23.8926 2008.05
-28.2828 -23.9731 2014.81
-28.8215 -23.9731 2014.81
-29.3603 -23.9731 2014.81
-29.7297 -24.0541 2021.62
-30.2703 -24.0541 2021.62
-30.8108 -24.0541 2021.62
-31.3514 -24.0541 2021.62
-31.8919 -24.0541 2021.62
-32.4324 -24.0541 2021.62
-32.973 -24.0541 2021.62
-33.5135 -24.0541 2021.62
-34.0541 -24.0541 2021.62
-34.7475 -23.9731 2014.81
-35.4362 -23.8926 2008.05
-35.9732 -23.8926 2008.05
-36.5101 -23.8926 2008.05
-37.1906 -23.8127 2001.34
-37.7258 -23.8127 2001.34
-39.3485 -23.1922 1949.19
-41.7391 -22.1118 1858.39
-40.5195 -23.1169 1942.86
-43.6364 -21.5758 1813.33
-44.3373 -21.4458 1802.41
-44.713 -21.5106 1807.85
-45.3012 -21.4458 1802.41
-45.988 -21.3174 1791.62
-46.7656 -21.1276 1775.67
-47.2404 -21.1276 1775.67
-47.7151 -21.1276 1775.67
-48.0952 -21.1905 1780.95
-48.4776 -21.2537 1786.27
-48.7688 -21.3814 1797
-49.0634 -21.5106 1807.85
-49.7297 -21.3814 1797
-49.6636 -21.7737 1829.97
-48.1046 -23.268 1955.56
-48.3168 -23.4983 1974.92
-49.0492 -23.3443 1961.97
-48.11 -24.4674 2056.36
-47.8873 -25.0704 2107.04
-48.3392 -25.159 2114.49
-47.8832 -25.9854 2183.94
-47.881 -26.4684 2224.54
-47.6336 -27.1756 2283.97
-46.3158 -28.8259 2422.67
-46.8293 -28.9431 2432.52
-48.1275 -28.3665 2384.06
-49.2549 -27.9216 2346.67
-49.8824 -27.9216 2346.67
-53.8889 -24.7222 2077.78
-53.1387 -25.9854 2183.94
-55.9197 -23.8127 2001.34
-56.8421 -23.4211 1968.42
-57.7346 -23.0421 1936.57
-57.8218 -23.4983 1974.92
-59.6273 -22.1118 1858.39
-60.1242 -22.1118 1858.39
-60.6211 -22.1118 1858.39
-61.118 -22.1118 1858.39
-61.6149 -22.1118 1858.39
-62.1118 -22.1118 1858.39
-62.6087 -22.1118 1858.39
-63.053 -22.1807 1864.17
-63.5514 -22.1807 1864.17
-63.9498 -22.3197 1875.86
-64.4025 -22.3899 1881.76
-64.2105 -23.4211 1968.42
-64.6865 -23.4983 1974.92
-65.2145 -23.4983 1974.92
-65.7426 -23.4983 1974.92
-66.2252 -23.5762 1981.46
-66.711 -23.6545 1988.04
-67.2848 -23.5762 1981.46
-67.7741 -23.6545 1988.04
-68.3444 -23.5762 1981.46
-68.8742 -23.5762 1981.46
-69.404 -23.5762 1981.46
-69.9338 -23.5762 1981.46
-70.4636 -23.5762 1981.46
-71.0231 -23.4983 1974.92
-71.5512 -23.4983 1974.92
-72.0792 -23.4983 1974.92
-72.6073 -23.4983 1974.92
-73.1353 -23.4983 1974.92
-73.6634 -23.4983 1974.92
-74.1914 -23.4983 1974.92
-74.7195 -23.4983 1974.92
-75.2475 -23.4983 1974.92
-75.7756 -23.4983 1974.92
-76.3036 -23.4983 1974.92
-76.8317 -23.4983 1974.92
-77.3597 -23.4983 1974.92
-77.8878 -23.4983 1974.92
-78.4211 -23.4211 1968.42
-78.9474 -23.4211 1968.42
-79.4737 -23.4211 1968.42
-80 -23.3443 1961.97
-80.5246 -23.3443 1961.97
-81.0492 -23.3443 1961.97
-81.5738 -23.3443 1961.97
-82.1053 -23.4211 1968.42
-82.6316 -23.4211 1968.42
-83.1579 -23.4211 1968.42
-83.6842 -23.4211 1968.42
-84.1967 -23.3443 1961.97
-84.7213 -23.3443 1961.97
-85.2459 -23.3443 1961.97
-85.7705 -23.3443 1961.97
-86.2951 -23.3443 1961.97
-86.8197 -23.3443 1961.97
-87.3443 -23.3443 1961.97
-87.8947 -23.4211 1968.42
-88.4211 -23.4211 1968.42
-88.9474 -23.4211 1968.42
-89.4737 -23.4211 1968.42
-90 -23.4211 1968.42
-90.5263 -23.4211 1968.42
-91.0526 -23.4211 1968.42
-91.541 -23.3443 1961.97
-92.0656 -23.3443 1961.97
-92.6316 -23.4211 1968.42
-93.1579 -23.4211 1968.42
-93.7294 -23.4983 1974.92
-94.2105 -23.4211 1968.42
-94.7855 -23.4983 1974.92
-95.2131 -23.3443 1961.97
-95.7895 -23.4211 1968.42
-96.3158 -23.4211 1968.42
-96.9536 -23.5762 1981.46
-97.6 -23.7333 1994.67
-98.194 -23.8127 2001.34
-98.6047 -23.6545 1988.04
-99.1362 -23.6545 1988.04
-99.6026 -23.5762 1981.46
-100.066 -23.4983 1974.92
-100.326 -23.1922 1949.19
-100.579 -22.8939 1924.12
-100.825 -22.6032 1899.68
-101.538 -22.8205 1917.95
-101.567 -22.3197 1875.86
-102 -22.25 1870
-102.43 -22.1807 1864.17
-102.857 -22.1118 1858.39
-103.354 -22.1118 1858.39
-103.851 -22.1118 1858.39
-104.348 -22.1118 1858.39
-104.768 -22.0433 1852.63
-105.263 -22.0433 1852.63
-105.759 -22.0433 1852.63
-106.254 -22.0433 1852.63
-106.749 -22.0433 1852.63
-107.245 -22.0433 1852.63
-107.74 -22.0433 1852.63
-108.148 -21.9753 1846.91
-108.642 -21.9753 1846.91
-109.136 -21.9753 1846.91
-109.63 -21.9753 1846.91
-110.123 -21.9753 1846.91
-110.617 -21.9753 1846.91
-111.111 -21.9753 1846.91
-111.605 -21.9753 1846.91
-112.099 -21.9753 1846.91
-112.593 -21.9753 1846.91
-112.985 -21.9077 1841.23
-113.477 -21.9077 1841.23
-113.969 -21.9077 1841.23
-114.462 -21.9077 1841.23
-114.954 -21.9077 1841.23
-115.446 -21.9077 1841.23
-115.938 -21.9077 1841.23
-116.431 -21.9077 1841.23
-116.81 -21.8405 1835.58
-117.301 -21.8405 1835.58
-117.791 -21.8405 1835.58
-118.282 -21.8405 1835.58
-118.773 -21.8405 1835.58
-119.264 -21.8405 1835.58
-119.755 -21.8405 1835.58
-120.122 -21.7737 1829.97
-120.612 -21.7737 1829.97
-121.101 -21.7737 1829.97
-121.59 -21.7737 1829.97
-122.08 -21.7737 1829.97
-122.569 -21.7737 1829.97
-122.927 -21.7073 1824.39
-123.415 -21.7073 1824.39
-123.902 -21.7073 1824.39
-124.255 -21.6413 1818.84
-124.742 -21.6413 1818.84
-125.366 -21.7073 1824.39
-125.854 -21.7073 1824.39
-126.201 -21.6413 1818.84
-126.829 -21.7073 1824.39
-127.317 -21.7073 1824.39
-127.805 -21.7073 1824.39
-128.293 -21.7073 1824.39
-128.78 -21.7073 1824.39
-129.419 -21.7737 1829.97
-129.756 -21.7073 1824.39
-130.398 -21.7737 1829.97
-130.887 -21.7737 1829.97
-131.376 -21.7737 1829.97
-131.865 -21.7737 1829.97
-132.355 -21.7737 1829.97
-132.844 -21.7737 1829.97
-133.333 -21.7737 1829.97
-133.823 -21.7737 1829.97
-134.312 -21.7737 1829.97
-134.801 -21.7737 1829.97
-135.291 -21.7737 1829.97
-135.78 -21.7737 1829.97
-136.269 -21.7737 1829.97
-136.758 -21.7737 1829.97
-137.248 -21.7737 1829.97
-137.737 -21.7737 1829.97
-138.226 -21.7737 1829.97
-138.716 -21.7737 1829.97
-139.205 -21.7737 1829.97
-139.694 -21.7737 1829.97
-140.368 -21.8405 1835.58
-140.859 -21.8405 1835.58
-141.35 -21.8405 1835.58
-141.84 -21.8405 1835.58
-142.331 -21.8405 1835.58
-142.822 -21.8405 1835.58
-143.313 -21.8405 1835.58
-143.804 -21.8405 1835.58
-144.294 -21.8405 1835.58
-144.785 -21.8405 1835.58
-145.276 -21.8405 1835.58
-145.767 -21.8405 1835.58
-146.258 -21.8405 1835.58
-146.748 -21.8405 1835.58
-147.239 -21.8405 1835.58
-147.73 -21.8405 1835.58
-148.221 -21.8405 1835.58
-148.712 -21.8405 1835.58
-149.202 -21.8405 1835.58
-149.693 -21.8405 1835.58
-150.184 -21.8405 1835.58
-150.675 -21.8405 1835.58
-151.385 -21.9077 1841.23
-151.656 -21.8405 1835.58
-152.369 -21.9077 1841.23
-152.862 -21.9077 1841.23
-153.354 -21.9077 1841.23
-154.074 -21.9753 1846.91
-155.737 -22.3197 1875.86
-156 -22.25 1870
-155.789 -22.0433 1852.63
-157.484 -22.3899 1881.76
-159.233 -22.7476 1911.82
-160.257 -22.8939 1924.12
-162.092 -23.268 1955.56
-164.267 -23.7333 1994.67
-164.518 -23.6545 1988.04
-167.372 -24.3003 2042.32
-168.219 -24.3836 2049.32
-169.689 -24.6367 2070.59
-170.871 -24.8084 2085.02
-172.394 -25.0704 2107.04
-173.286 -25.159 2114.49
-173.521 -25.0704 2107.04
-174.085 -25.0704 2107.04
-174.982 -25.159 2114.49
-175.211 -25.0704 2107.04
-175.775 -25.0704 2107.04
-176.338 -25.0704 2107.04
-176.901 -25.0704 2107.04
-177.465 -25.0704 2107.04
-178.028 -25.0704 2107.04
-178.592 -25.0704 2107.04
-179.155 -25.0704 2107.04
-179.718 -25.0704 2107.04
-180.282 -25.0704 2107.04
-180.845 -25.0704 2107.04
-181.408 -25.0704 2107.04
-181.614 -24.9825 2099.65
-182.175 -24.9825 2099.65
-182.737 -24.9825 2099.65
-183.298 -24.9825 2099.65
-183.86 -24.9825 2099.65
-184.421 -24.9825 2099.65
-184.982 -24.9825 2099.65
-185.544 -24.9825 2099.65
-186.479 -25.0704 2107.04
-187.042 -25.0704 2107.04
-187.606 -25.0704 2107.04
-201.423 -28.1423 2365.22
-205.02 -28.8259 2422.67
-207.213 -29.1803 2452.46
-210.544 -29.7908 2503.77
-216.348 -30.9565 2601.74
-225.253 -32.8111 2757.6
-228.732 -33.4272 2809.39
-233.816 -34.3961 2890.82
-236.863 -34.902 2933.33
-240 -35.4229 2977.11
-241.592 -35.4229 2977.11
-242.376 -35.2475 2962.38
-243.941 -35.0739 2947.78
-243.122 -34.7317 2919.02
-242.319 -34.3961 2890.82
-240.762 -33.9048 2849.52
-238.505 -33.271 2796.26
-226.266 -30.5579 2568.24
43.0769 -24.3357 2092.31
42.5175 -24.3357 2092.31
41.958 -24.3357 2092.31
40.9756 -24.2509 2085.02
41.2632 -24.4211 2099.65
41.1268 -24.507 2107.04
39.3031 -24.2509 2085.02
39.1608 -24.3357 2092.31
37.3702 -24.083 2070.59
36.8166 -24.083 2070.59
36.263 -24.083 2070.59
34.9141 -23.9175 2056.36
34.7586 -24 2063.45
33.8144 -23.9175 2056.36
33.6552 -24 2063.45
33.4948 -24.083 2070.59
32.5517 -24 2063.45
32 -24 2063.45
31.4483 -24 2063.45
30.8966 -24 2063.45
30.3448 -24 2063.45
29.7931 -24 2063.45
29.2414 -24 2063.45
28.6897 -24 2063.45
27.7663 -23.9175 2056.36
27.9585 -24.083 2070.59
26.6667 -23.9175 2056.36
26.4828 -24 2063.45
25.567 -23.9175 2056.36
25.0172 -23.9175 2056.36
24.1096 -23.8356 2049.32
24.2759 -24 2063.45
23.3677 -23.9175 2056.36
22.4658 -23.8356 2049.32
22.268 -23.9175 2056.36
21.7182 -23.9175 2056.36
21.1684 -23.9175 2056.36
21.3149 -24.083 2070.59
16.7442 -23.1229 1988.04
16.8562 -23.2776 2001.34
15.3642 -23.0464 1981.46
14.2105 -22.8947 1968.42
13.0719 -22.7451 1955.56
11.9481 -22.5974 1942.86
11.1327 -22.5243 1936.57
10.6149 -22.5243 1936.57
9.80645 -22.4516 1930.32
9.29032 -22.4516 1930.32
9.06149 -22.5243 1936.57
8.54369 -22.5243 1936.57
8.31169 -22.5974 1942.86
7.79221 -22.5974 1942.86
7.557 -22.671 1949.19
7.60656 -22.8197 1961.97
9.42761 -23.4343 2014.81
9.49153 -23.5932 2028.47
8.94915 -23.5932 2028.47
9.62199 -23.9175 2056.36
8.16327 -23.6735 2035.37
9.13495 -24.083 2070.59
7.67123 -23.8356 2049.32
6.82594 -23.7543 2042.32
6.27986 -23.7543 2042.32
6.0274 -23.8356 2049.32
5.47945 -23.8356 2049.32
5.51724 -24 2063.45
4.38356 -23.8356 2049.32
3.83562 -23.8356 2049.32
3.28767 -23.8356 2049.32
3.02405 -23.9175 2056.36
2.47423 -23.9175 2056.36
1.9244 -23.9175 2056.36
1.37457 -23.9175 2056.36
0.824742 -23.9175 2056.36
-0 -23.8356 2049.32
-1.08844 -23.6735 2035.37
-1.89831 -23.5932 2028.47
-3.47826 -23.2776 2001.34
-5.0165 -22.9703 1974.92
-5.29801 -23.0464 1981.46
-11.7073 -21.2195 1824.39
-14.7801 -20.4106 1754.84
-16.3689 -20.0576 1724.5
-18.5994 -19.4958 1676.19
-19.0476 -19.4958 1676.19
-19.4958 -19.4958 1676.19
-19.0909 -19.7727 1700
-19.7167 -19.7167 1695.18
-15.2147 -21.3497 1835.58
-14.9068 -21.6149 1858.39
-14.1772 -22.0253 1893.67
-13.4194 -22.4516 1930.32
-12.8525 -22.8197 1961.97
-12.7152 -23.0464 1981.46
-12.8 -23.2 1994.67
-12.8859 -23.3557 2008.05
-13.4228 -23.3557 2008.05
-13.7374 -23.4343 2014.81
-14.7157 -23.2776 2001.34
-15.4667 -23.2 1994.67
-16.2126 -23.1229 1988.04
-18.9744 -22.3077 1917.95
-19.4872 -22.3077 1917.95
-20.1917 -22.2364 1911.82
-20.7029 -22.2364 1911.82
-21.2141 -22.2364 1911.82
-21.7252 -22.2364 1911.82
-22.2364 -22.2364 1911.82
-22.7476 -22.2364 1911.82
-23.2588 -22.2364 1911.82
-23.77 -22.2364 1911.82
-24.2812 -22.2364 1911.82
-24.7923 -22.2364 1911.82
-25.3035 -22.2364 1911.82
-25.8147 -22.2364 1911.82
-26.1538 -22.3077 1917.95
-26.4952 -22.3794 1924.12
-26.8387 -22.4516 1930.32
-26.4918 -22.8197 1961.97
-27.7023 -22.5243 1936.57
-27.3684 -22.8947 1968.42
-27.5497 -23.0464 1981.46
-27.7333 -23.2 1994.67
-28.0936 -23.2776 2001.34
-28.2828 -23.4343 2014.81
-28.8215 -23.4343 2014.81
-29.3603 -23.4343 2014.81
-29.7297 -23.5135 2021.62
-30.4377 -23.4343 2014.81
-30.8108 -23.5135 2021.62
-31.3514 -23.5135 2021.62
-31.8919 -23.5135 2021.62
-32.4324 -23.5135 2021.62
-32.973 -23.5135 2021.62
-33.5135 -23.5135 2021.62
-34.3624 -23.3557 2008.05
-34.7475 -23.4343 2014.81
-35.4362 -23.3557 2008.05
-36.1204 -23.2776 2001.34
-36.6555 -23.2776 2001.34
-37.3333 -23.2 1994.67
-38.2838 -22.9703 1974.92
-38.9474 -22.8947 1968.42
-42.439 -21.2195 1824.39
-43.0395 -21.155 1818.84
-43.7462 -21.0272 1807.85
-44.3373 -20.9639 1802.41
-44.9249 -20.9009 1797
-45.7143 -20.7143 1780.95
-46.2908 -20.6528 1775.67
-46.6667 -20.7143 1780.95
-47.2404 -20.6528 1775.67
-47.7151 -20.6528 1775.67
-48.1899 -20.6528 1775.67
-48.5714 -20.7143 1780.95
-48.8623 -20.8383 1791.62
-49.3413 -20.8383 1791.62
-49.9104 -20.7761 1786.27
-48.9028 -21.8182 1875.86
-49.1139 -22.0253 1893.67
-49.4268 -22.1656 1905.73
-48.6379 -23.1229 1988.04
-48.9632 -23.2776 2001.34
-48.4429 -24.083 2070.59
-48.227 -24.6809 2121.99
-46.5399 -26.4639 2275.29
-46.1176 -27.2941 2346.67
-46.4822 -27.5099 2365.22
-48.6038 -26.2642 2258.11
-49.7778 -25.7778 2216.3
-48.5039 -27.4016 2355.91
-48.7649 -27.7291 2384.06
-49.8824 -27.2941 2346.67
-51.2977 -26.5649 2283.97
-53.4296 -25.1264 2160.29
-54.6479 -24.507 2107.04
-56.918 -22.8197 1961.97
-57.7346 -22.5243 1936.57
-58.3923 -22.3794 1924.12
-59.6273 -21.6149 1858.39
-60.1242 -21.6149 1858.39
-60.6211 -21.6149 1858.39
-61.118 -21.6149 1858.39
-61.6149 -21.6149 1858.39
-62.1118 -21.6149 1858.39
-62.5545 -21.6822 1864.17
-63.053 -21.6822 1864.17
-63.4483 -21.8182 1875.86
-63.8994 -21.8868 1881.76
-64.4514 -21.8182 1875.86
-64.6645 -22.2364 1911.82
-64.6358 -23.0464 1981.46
-65.1656 -23.0464 1981.46
-65.6478 -23.1229 1988.04
-66.1794 -23.1229 1988.04
-66.6667 -23.2 1994.67
-67.2 -23.2 1994.67
-67.8146 -23.0464 1981.46
-68.3444 -23.0464 1981.46
-68.8742 -23.0464 1981.46
-69.404 -23.0464 1981.46
-69.9338 -23.0464 1981.46
-70.495 -22.9703 1974.92
-71.0231 -22.9703 1974.92
-71.5512 -22.9703 1974.92
-72.0792 -22.9703 1974.92
-72.6073 -22.9703 1974.92
-73.1353 -22.9703 1974.92
-73.6634 -22.9703 1974.92
-74.1914 -22.9703 1974.92
-74.7195 -22.9703 1974.92
-75.2475 -22.9703 1974.92
-75.7756 -22.9703 1974.92
-76.3036 -22.9703 1974.92
-76.8317 -22.9703 1974.92
-77.3597 -22.9703 1974.92
-77.8947 -22.8947 1968.42
-78.4211 -22.8947 1968.42
-78.9474 -22.8947 1968.42
-79.4754 -22.8197 1961.97
-80 -22.8197 1961.97
-80.5246 -22.8197 1961.97
-81.0458 -22.7451 1955.56
-81.5686 -22.7451 1955.56
-82.0915 -22.7451 1955.56
-82.6144 -22.7451 1955.56
-83.1475 -22.8197 1961.97
-83.6842 -22.8947 1968.42
-84.1694 -22.671 1949.19
-84.7213 -22.8197 1961.97
-85.2288 -22.7451 1955.56
-85.7705 -22.8197 1961.97
-86.2951 -22.8197 1961.97
-86.8197 -22.8197 1961.97
-87.3443 -22.8197 1961.97
-87.8689 -22.8197 1961.97
-88.3934 -22.8197 1961.97
-88.918 -22.8197 1961.97
-89.4426 -22.8197 1961.97
-89.9672 -22.8197 1961.97
-90.4918 -22.8197 1961.97
-91.0164 -22.8197 1961.97
-91.541 -22.8197 1961.97
-92.0656 -22.8197 1961.97
-92.5902 -22.8197 1961.97
-93.1148 -22.8197 1961.97
-93.6393 -22.8197 1961.97
-94.1639 -22.8197 1961.97
-94.5928 -22.671 1949.19
-95.2131 -22.8197 1961.97
-95.7895 -22.8947 1968.42
-96.2623 -22.8197 1961.97
-96.8421 -22.8947 1968.42
-97.4257 -22.9703 1974.92
-97.9538 -22.9703 1974.92
-98.543 -23.0464 1981.46
-99.0099 -22.9703 1974.92
-99.2834 -22.671 1949.19
-99.7403 -22.5974 1942.86
-100.129 -22.4516 1930.32
-100.447 -22.2364 1911.82
-100.892 -22.1656 1905.73
-101.199 -21.9558 1887.7
-101.635 -21.8868 1881.76
-102 -21.75 1870
-102.36 -21.6149 1858.39
-102.857 -21.6149 1858.39
-103.354 -21.6149 1858.39
-103.851 -21.6149 1858.39
-104.348 -21.6149 1858.39
-104.845 -21.6149 1858.39
-105.263 -21.548 1852.63
-105.759 -21.548 1852.63
-106.254 -21.548 1852.63
-106.749 -21.548 1852.63
-107.245 -21.548 1852.63
-107.654 -21.4815 1846.91
-108.148 -21.4815 1846.91
-108.642 -21.4815 1846.91
-109.136 -21.4815 1846.91
-109.63 -21.4815 1846.91
-110.123 -21.4815 1846.91
-110.617 -21.4815 1846.91
-111.111 -21.4815 1846.91
-111.605 -21.4815 1846.91
-112.099 -21.4815 1846.91
-112.492 -21.4154 1841.23
-112.985 -21.4154 1841.23
-113.477 -21.4154 1841.23
-113.969 -21.4154 1841.23
-114.462 -21.4154 1841.23
-114.954 -21.4154 1841.23
-115.446 -21.4154 1841.23
-115.938 -21.4154 1841.23
-116.319 -21.3497 1835.58
-116.81 -21.3497 1835.58
-117.301 -21.3497 1835.58
-117.791 -21.3497 1835.58
-118.282 -21.3497 1835.58
-118.773 -21.3497 1835.58
-119.264 -21.3497 1835.58
-119.755 -21.3497 1835.58
-120.122 -21.2844 1829.97
-120.612 -21.2844 1829.97
-121.101 -21.2844 1829.97
-121.59 -21.2844 1829.97
-121.951 -21.2195 1824.39
-122.439 -21.2195 1824.39
-122.927 -21.2195 1824.39
-123.415 -21.2195 1824.39
-123.902 -21.2195 1824.39
-124.255 -21.155 1818.84
-124.742 -21.155 1818.84
-125.228 -21.155 1818.84
-125.714 -21.155 1818.84
-126.201 -21.155 1818.84
-126.687 -21.155 1818.84
-127.173 -21.155 1818.84
-127.805 -21.2195 1824.39
-128.293 -21.2195 1824.39
-128.78 -21.2195 1824.39
-129.268 -21.2195 1824.39
-129.908 -21.2844 1829.97
-130.398 -21.2844 1829.97
-130.887 -21.2844 1829.97
-131.376 -21.2844 1829.97
-131.865 -21.2844 1829.97
-132.355 -21.2844 1829.97
-132.844 -21.2844 1829.97
-133.333 -21.2844 1829.97
-133.823 -21.2844 1829.97
-134.312 -21.2844 1829.97
-134.801 -21.2844 1829.97
-135.291 -21.2844 1829.97
-135.78 -21.2844 1829.97
-136.269 -21.2844 1829.97
-136.758 -21.2844 1829.97
-137.248 -21.2844 1829.97
-137.737 -21.2844 1829.97
-138.226 -21.2844 1829.97
-138.716 -21.2844 1829.97
-139.205 -21.2844 1829.97
-139.694 -21.2844 1829.97
-140.183 -21.2844 1829.97
-140.673 -21.2844 1829.97
-141.35 -21.3497 1835.58
-141.84 -21.3497 1835.58
-142.331 -21.3497 1835.58
-142.822 -21.3497 1835.58
-143.313 -21.3497 1835.58
-143.804 -21.3497 1835.58
-144.294 -21.3497 1835.58
-144.785 -21.3497 1835.58
-145.276 -21.3497 1835.58
-145.767 -21.3497 1835.58
-146.258 -21.3497 1835.58
-146.748 -21.3497 1835.58
-147.239 -21.3497 1835.58
-147.73 -21.3497 1835.58
-148.221 -21.3497 1835.58
-148.712 -21.3497 1835.58
-149.202 -21.3497 1835.58
-149.693 -21.3497 1835.58
-150.184 -21.3497 1835.58
-150.675 -21.3497 1835.58
-151.385 -21.4154 1841.23
-151.656 -21.3497 1835.58
-152.369 -21.4154 1841.23
-152.862 -21.4154 1841.23
-153.129 -21.3497 1835.58
-153.846 -21.4154 1841.23
-155.031 -21.6149 1858.39
-155.528 -21.6149 1858.39
-155.556 -21.4815 1846.91
-156.049 -21.4815 1846.91
-157.5 -21.75 1870
-159.49 -22.1656 1905.73
-160.513 -22.3077 1917.95
-162.078 -22.5974 1942.86
-165.084 -23.2776 2001.34
-165.906 -23.3557 2008.05
-168.522 -23.9175 2056.36
-170 -24.1667 2077.78
-170.871 -24.2509 2085.02
-171.429 -24.2509 2085.02
-172.632 -24.4211 2099.65
-173.852 -24.5936 2114.49
-174.085 -24.507 2107.04
-174.316 -24.4211 2099.65
-174.877 -24.4211 2099.65
-175.439 -24.4211 2099.65
-176.338 -24.507 2107.04
-176.561 -24.4211 2099.65
-177.465 -24.507 2107.04
-178.028 -24.507 2107.04
-178.592 -24.507 2107.04
-179.155 -24.507 2107.04
-179.718 -24.507 2107.04
-180.282 -24.507 2107.04
-180.845 -24.507 2107.04
-181.053 -24.4211 2099.65
-181.614 -24.4211 2099.65
-182.175 -24.4211 2099.65
-182.737 -24.4211 2099.65
-183.298 -24.4211 2099.65
-183.86 -24.4211 2099.65
-184.421 -24.4211 2099.65
-184.982 -24.4211 2099.65
-185.544 -24.4211 2099.65
-186.479 -24.507 2107.04
-187.42 -24.5936 2114.49
-187.986 -24.5936 2114.49
-190.108 -24.9462 2144.8
-193.114 -25.4945 2191.94
-208.264 -28.7603 2472.73
-211.646 -29.3671 2524.89
-221.261 -31.3514 2695.5
-227.29 -32.5234 2796.26
-229.434 -32.8302 2822.64
-234.563 -33.7864 2904.85
-237.635 -34.2857 2947.78
-240.796 -34.6269 2977.11
-241.592 -34.6269 2977.11
-242.388 -34.6269 2977.11
-243.98 -34.6269 2977.11
-245.572 -34.6269 2977.11
-243.122 -33.9512 2919.02
-242.319 -33.6232 2890.82
-238.498 -32.6761 2809.39
-238.505 -32.5234 2796.26
-234.909 -31.6364 2720
41.7993 -23.5294 2070.59
41.2457 -23.5294 2070.59
40.692 -23.5294 2070.59
39.3127 -23.3677 2056.36
39.1724 -23.4483 2063.45
38.6207 -23.4483 2063.45
38.069 -23.4483 2063.45
37.1134 -23.3677 2056.36
36.9655 -23.4483 2063.45
35.6164 -23.2877 2049.32
35.4639 -23.3677 2056.36
34.9141 -23.3677 2056.36
34.3643 -23.3677 2056.36
33.8144 -23.3677 2056.36
33.2646 -23.3677 2056.36
33.1034 -23.4483 2063.45
32.5517 -23.4483 2063.45
31.6151 -23.3677 2056.36
31.0653 -23.3677 2056.36
30.5155 -23.3677 2056.36
29.9656 -23.3677 2056.36
29.4158 -23.3677 2056.36
28.4932 -23.2877 2049.32
28.3162 -23.3677 2056.36
27.3973 -23.2877 2049.32
26.8493 -23.2877 2049.32
25.9386 -23.2082 2042.32
25.7534 -23.2877 2049.32
25.2055 -23.2877 2049.32
24.6575 -23.2877 2049.32
24.1096 -23.2877 2049.32
23.5616 -23.2877 2049.32
23.0137 -23.2877 2049.32
22.4658 -23.2877 2049.32
21.9178 -23.2877 2049.32
20.6803 -23.1293 2035.37
20.8219 -23.2877 2049.32
20.274 -23.2877 2049.32
17.0667 -22.6667 1994.67
16.5333 -22.6667 1994.67
14.4262 -22.2951 1961.97
