0.265781 -12.4917 1988.04
-0.265781 -12.4917 1988.04
-2.0915 -12.2876 1955.56
-5.06329 -11.8987 1893.67
-10.6195 -11.0914 1765.19
-13.4473 -10.7123 1704.84
-14.8315 -10.5618 1680.9
-15.2809 -10.5618 1680.9
-15.7303 -10.5618 1680.9
-16.1798 -10.5618 1680.9
-16.8067 -10.5322 1676.19
-17.2549 -10.5322 1676.19
-17.7031 -10.5322 1676.19
-17.9775 -10.5618 1680.9
-18.5994 -10.5322 1676.19
-18.8764 -10.5618 1680.9
-19.3258 -10.5618 1680.9
-19.6056 -10.5915 1685.63
-18.3188 -10.8986 1734.49
-12.524 -12.0128 1911.82
-12.6045 -12.09 1924.12
-11.3531 -12.4092 1974.92
-11.8812 -12.4092 1974.92
-12.6316 -12.3684 1968.42
-14.4516 -12.129 1930.32
-15.1768 -12.09 1924.12
-15.8974 -12.0513 1917.95
-16.4103 -12.0513 1917.95
-17.3248 -11.9745 1905.73
-17.8344 -11.9745 1905.73
-18.3439 -11.9745 1905.73
-18.8535 -11.9745 1905.73
-19.3631 -11.9745 1905.73
-19.8726 -11.9745 1905.73
-20.3822 -11.9745 1905.73
-20.8917 -11.9745 1905.73
-21.4013 -11.9745 1905.73
-21.9108 -11.9745 1905.73
-22.4204 -11.9745 1905.73
-22.9299 -11.9745 1905.73
-23.4395 -11.9745 1905.73
-23.949 -11.9745 1905.73
-24.4586 -11.9745 1905.73
-24.9682 -11.9745 1905.73
-25.4777 -11.9745 1905.73
-25.9873 -11.9745 1905.73
-26.4968 -11.9745 1905.73
-27.0064 -11.9745 1905.73
-27.5159 -11.9745 1905.73
-28.0255 -11.9745 1905.73
-28.535 -11.9745 1905.73
-28.8818 -12.0128 1911.82
-29.393 -12.0128 1911.82
-29.7436 -12.0513 1917.95
-29.4463 -12.2476 1949.19
-29.4737 -12.3684 1968.42
-30.1639 -12.3279 1961.97
-30.6885 -12.3279 1961.97
-32.1543 -12.09 1924.12
-34.1433 -11.7134 1864.17
-36.6667 -11.1905 1780.95
-37.1429 -11.1905 1780.95
-37.7448 -11.1573 1775.67
-38.2196 -11.1573 1775.67
-38.6944 -11.1573 1775.67
-39.1691 -11.1573 1775.67
-39.6439 -11.1573 1775.67
-40.2367 -11.1243 1770.41
-40.5935 -11.1573 1775.67
-41.1834 -11.1243 1770.41
-41.6568 -11.1243 1770.41
-42.1302 -11.1243 1770.41
-42.6036 -11.1243 1770.41
-43.0769 -11.1243 1770.41
-43.5503 -11.1243 1770.41
-44.0237 -11.1243 1770.41
-44.497 -11.1243 1770.41
-44.9704 -11.1243 1770.41
-45.4438 -11.1243 1770.41
-45.9172 -11.1243 1770.41
-46.3905 -11.1243 1770.41
-46.8639 -11.1243 1770.41
-47.3373 -11.1243 1770.41
-47.8107 -11.1243 1770.41
-48.284 -11.1243 1770.41
-48.7574 -11.1243 1770.41
-49.1395 -11.1573 1775.67
-49.5238 -11.1905 1780.95
-48.9846 -11.5692 1841.23
-48.9028 -11.7868 1875.86
-48.4142 -12.1683 1936.57
-48.6275 -12.2876 1955.56
-49.1503 -12.2876 1955.56
-50.2564 -12.0513 1917.95
-51.0476 -11.9365 1899.68
-52 -11.75 1870
-52.5 -11.75 1870
-53 -11.75 1870
-53.5826 -11.7134 1864.17
-54.1615 -11.677 1858.39
-54.6584 -11.677 1858.39
-55.1553 -11.677 1858.39
-55.6522 -11.677 1858.39
-56.1491 -11.677 1858.39
-56.646 -11.677 1858.39
-57.1429 -11.677 1858.39
-57.6398 -11.677 1858.39
-58.1366 -11.677 1858.39
-58.6335 -11.677 1858.39
-59.1304 -11.677 1858.39
-59.6273 -11.677 1858.39
-60.1242 -11.677 1858.39
-60.6211 -11.677 1858.39
-61.118 -11.677 1858.39
-61.5576 -11.7134 1864.17
-62.1118 -11.677 1858.39
-62.6087 -11.677 1858.39
-63.053 -11.7134 1864.17
-63.4483 -11.7868 1875.86
-63.6422 -12.0128 1911.82
-63.9482 -12.1683 1936.57
-64.3648 -12.2476 1949.19
-64.886 -12.2476 1949.19
-65.4545 -12.2078 1942.86
-65.974 -12.2078 1942.86
-66.5372 -12.1683 1936.57
-67.055 -12.1683 1936.57
-67.5728 -12.1683 1936.57
-68.129 -12.129 1930.32
-68.6817 -12.09 1924.12
-69.2652 -12.0128 1911.82
-69.7764 -12.0128 1911.82
-70.2875 -12.0128 1911.82
-70.7987 -12.0128 1911.82
-71.3099 -12.0128 1911.82
-71.8211 -12.0128 1911.82
-72.3323 -12.0128 1911.82
-72.8435 -12.0128 1911.82
-73.3546 -12.0128 1911.82
-73.8658 -12.0128 1911.82
-74.359 -12.0513 1917.95
-74.8718 -12.0513 1917.95
-75.3994 -12.0128 1911.82
-75.9105 -12.0128 1911.82
-76.4217 -12.0128 1911.82
-76.9329 -12.0128 1911.82
-77.4441 -12.0128 1911.82
-77.9553 -12.0128 1911.82
-78.4665 -12.0128 1911.82
-78.9776 -12.0128 1911.82
-79.4888 -12.0128 1911.82
-80 -12.0128 1911.82
-80.5112 -12.0128 1911.82
-81.0224 -12.0128 1911.82
-81.5335 -12.0128 1911.82
-82.0447 -12.0128 1911.82
-82.5559 -12.0128 1911.82
-83.0671 -12.0128 1911.82
-83.5783 -12.0128 1911.82
-84.0895 -12.0128 1911.82
-84.6154 -12.0513 1917.95
-85.1282 -12.0513 1917.95
-85.641 -12.0513 1917.95
-86.1538 -12.0513 1917.95
-86.6667 -12.0513 1917.95
-87.1795 -12.0513 1917.95
-87.6923 -12.0513 1917.95
-88.2051 -12.0513 1917.95
-88.7179 -12.0513 1917.95
-89.2308 -12.0513 1917.95
-89.7436 -12.0513 1917.95
-90.2564 -12.0513 1917.95
-90.7692 -12.0513 1917.95
-91.1746 -11.9365 1899.68
-91.5723 -11.8239 1881.76
-91.9255 -11.677 1858.39
-92.4224 -11.677 1858.39
-92.9193 -11.677 1858.39
-93.3746 -11.6409 1852.63
-93.87 -11.6409 1852.63
-94.3653 -11.6409 1852.63
-94.8607 -11.6409 1852.63
-95.356 -11.6409 1852.63
-95.8025 -11.6049 1846.91
-96.2963 -11.6049 1846.91
-96.7901 -11.6049 1846.91
-97.284 -11.6049 1846.91
-97.7778 -11.6049 1846.91
-98.2716 -11.6049 1846.91
-98.7077 -11.5692 1841.23
-99.2 -11.5692 1841.23
-99.6923 -11.5692 1841.23
-100.185 -11.5692 1841.23
-100.677 -11.5692 1841.23
-101.169 -11.5692 1841.23
-101.662 -11.5692 1841.23
-102.154 -11.5692 1841.23
-102.646 -11.5692 1841.23
-102.997 -11.4985 1829.97
-103.343 -11.4286 1818.84
-103.83 -11.4286 1818.84
-104.316 -11.4286 1818.84
-104.802 -11.4286 1818.84
-105.212 -11.3939 1813.33
-105.775 -11.4286 1818.84
-106.261 -11.4286 1818.84
-106.748 -11.4286 1818.84
-107.234 -11.4286 1818.84
-107.72 -11.4286 1818.84
-108.207 -11.4286 1818.84
-108.693 -11.4286 1818.84
-109.179 -11.4286 1818.84
-109.756 -11.4634 1824.39
-110.152 -11.4286 1818.84
-110.545 -11.3939 1813.33
-111.03 -11.3939 1813.33
-111.515 -11.3939 1813.33
-112 -11.3939 1813.33
-112.485 -11.3939 1813.33
-112.87 -11.3595 1807.85
-113.353 -11.3595 1807.85
-113.837 -11.3595 1807.85
-114.32 -11.3595 1807.85
-114.804 -11.3595 1807.85
-115.287 -11.3595 1807.85
-115.77 -11.3595 1807.85
-116.254 -11.3595 1807.85
-116.737 -11.3595 1807.85
-117.221 -11.3595 1807.85
-117.704 -11.3595 1807.85
-118.303 -11.3939 1813.33
-118.788 -11.3939 1813.33
-119.154 -11.3595 1807.85
-119.758 -11.3939 1813.33
-120 -11.3253 1802.41
-120.482 -11.3253 1802.41
-120.964 -11.3253 1802.41
-121.446 -11.3253 1802.41
-121.928 -11.3253 1802.41
-122.282 -11.2913 1797
-122.763 -11.2913 1797
-123.243 -11.2913 1797
-123.724 -11.2913 1797
-124.204 -11.2913 1797
-124.685 -11.2913 1797
-125.165 -11.2913 1797
-125.783 -11.3253 1802.41
-126.265 -11.3253 1802.41
-126.747 -11.3253 1802.41
-127.372 -11.3595 1807.85
-128 -11.3939 1813.33
-128.485 -11.3939 1813.33
-128.97 -11.3939 1813.33
-129.455 -11.3939 1813.33
-129.939 -11.3939 1813.33
-130.424 -11.3939 1813.33
-130.909 -11.3939 1813.33
-131.394 -11.3939 1813.33
-131.722 -11.3595 1807.85
-132.205 -11.3595 1807.85
-132.689 -11.3595 1807.85
-133.172 -11.3595 1807.85
-133.494 -11.3253 1802.41
-133.976 -11.3253 1802.41
-134.458 -11.3253 1802.41
-134.94 -11.3253 1802.41
-135.422 -11.3253 1802.41
-135.904 -11.3253 1802.41
-136.386 -11.3253 1802.41
-136.697 -11.2913 1797
-137.177 -11.2913 1797
-137.658 -11.2913 1797
-138.138 -11.2913 1797
-138.619 -11.2913 1797
-139.636 -11.3939 1813.33
-140.121 -11.3939 1813.33
-140.606 -11.3939 1813.33
-140.906 -11.3595 1807.85
-141.576 -11.3939 1813.33
-142.061 -11.3939 1813.33
-142.356 -11.3595 1807.85
-143.03 -11.3939 1813.33
-143.323 -11.3595 1807.85
-143.807 -11.3595 1807.85
-144.096 -11.3253 1802.41
-144.384 -11.2913 1797
-144.865 -11.2913 1797
-145.345 -11.2913 1797
-145.826 -11.2913 1797
-146.306 -11.2913 1797
-146.988 -11.3253 1802.41
-147.47 -11.3253 1802.41
-147.952 -11.3253 1802.41
-148.434 -11.3253 1802.41
-149.333 -11.3939 1813.33
-150.03 -11.4286 1818.84
-150.517 -11.4286 1818.84
-151.003 -11.4286 1818.84
-151.489 -11.4286 1818.84
-151.976 -11.4286 1818.84
-152.462 -11.4286 1818.84
-152.948 -11.4286 1818.84
-153.435 -11.4286 1818.84
-153.921 -11.4286 1818.84
-154.407 -11.4286 1818.84
-155.122 -11.4634 1824.39
-155.61 -11.4634 1824.39
-156.098 -11.4634 1824.39
-156.585 -11.4634 1824.39
-157.073 -11.4634 1824.39
-157.561 -11.4634 1824.39
-158.049 -11.4634 1824.39
-158.537 -11.4634 1824.39
-159.024 -11.4634 1824.39
-159.755 -11.4985 1829.97
-160.491 -11.5337 1835.58
-160.982 -11.5337 1835.58
-161.472 -11.5337 1835.58
-162.469 -11.6049 1846.91
-164.795 -11.8612 1887.7
-165.031 -11.8239 1881.76
-166.076 -11.8987 1893.67
-166.582 -11.8987 1893.67
-167.089 -11.8987 1893.67
-167.595 -11.8987 1893.67
-168.101 -11.8987 1893.67
-168.608 -11.8987 1893.67
-169.114 -11.8987 1893.67
-169.62 -11.8987 1893.67
-170.127 -11.8987 1893.67
-170.633 -11.8987 1893.67
-171.139 -11.8987 1893.67
-171.646 -11.8987 1893.67
-172.152 -11.8987 1893.67
-172.658 -11.8987 1893.67
-173.46 -11.9365 1899.68
-173.968 -11.9365 1899.68
-174.476 -11.9365 1899.68
-174.984 -11.9365 1899.68
-175.492 -11.9365 1899.68
-176 -11.9365 1899.68
-176.508 -11.9365 1899.68
-177.016 -11.9365 1899.68
-177.834 -11.9745 1905.73
-178.974 -12.0513 1917.95
-179.807 -12.09 1924.12
-180.645 -12.129 1930.32
-181.161 -12.129 1930.32
-181.677 -12.129 1930.32
-182.524 -12.1683 1936.57
-183.042 -12.1683 1936.57
-183.56 -12.1683 1936.57
-184.078 -12.1683 1936.57
-184.595 -12.1683 1936.57
-185.113 -12.1683 1936.57
-185.631 -12.1683 1936.57
-186.149 -12.1683 1936.57
-186.667 -12.1683 1936.57
-187.184 -12.1683 1936.57
-188.052 -12.2078 1942.86
-188.22 -12.1683 1936.57
-189.091 -12.2078 1942.86
-189.61 -12.2078 1942.86
-190.13 -12.2078 1942.86
-190.649 -12.2078 1942.86
-191.169 -12.2078 1942.86
-191.688 -12.2078 1942.86
-192.208 -12.2078 1942.86
-192.727 -12.2078 1942.86
-193.247 -12.2078 1942.86
-193.766 -12.2078 1942.86
29.1131 -11.0092 1829.97
37.2277 -11.8812 1974.92
38.6577 -12.0805 2008.05
38.5185 -12.1212 2014.81
37.9798 -12.1212 2014.81
37.4411 -12.1212 2014.81
36.9024 -12.1212 2014.81
36.3636 -12.1212 2014.81
35.8249 -12.1212 2014.81
35.2862 -12.1212 2014.81
34.7475 -12.1212 2014.81
34.2088 -12.1212 2014.81
33.67 -12.1212 2014.81
33.1313 -12.1212 2014.81
32.5926 -12.1212 2014.81
32.0539 -12.1212 2014.81
31.5152 -12.1212 2014.81
30.9764 -12.1212 2014.81
30.4377 -12.1212 2014.81
29.5302 -12.0805 2008.05
28.9933 -12.0805 2008.05
28.4564 -12.0805 2008.05
27.9195 -12.0805 2008.05
27.3826 -12.0805 2008.05
26.8456 -12.0805 2008.05
26.3087 -12.0805 2008.05
25.7718 -12.0805 2008.05
25.2349 -12.0805 2008.05
24.698 -12.0805 2008.05
24.1611 -12.0805 2008.05
23.6242 -12.0805 2008.05
23.0872 -12.0805 2008.05
22.5503 -12.0805 2008.05
22.0134 -12.0805 2008.05
21.1371 -12.0401 2001.34
20.602 -12.0401 2001.34
16.5161 -11.6129 1930.32
16 -11.6129 1930.32
15.4839 -11.6129 1930.32
14.9677 -11.6129 1930.32
14.1479 -11.5756 1924.12
13.6334 -11.5756 1924.12
13.119 -11.5756 1924.12
12.6045 -11.5756 1924.12
12.09 -11.5756 1924.12
11.5756 -11.5756 1924.12
11.0611 -11.5756 1924.12
10.5466 -11.5756 1924.12
10.0322 -11.5756 1924.12
9.51768 -11.5756 1924.12
9.00322 -11.5756 1924.12
8.48875 -11.5756 1924.12
7.97428 -11.5756 1924.12
7.74194 -11.6129 1930.32
7.22581 -11.6129 1930.32
6.70968 -11.6129 1930.32
6.19355 -11.6129 1930.32
5.67742 -11.6129 1930.32
5.16129 -11.6129 1930.32
4.64516 -11.6129 1930.32
4.12903 -11.6129 1930.32
5.82781 -11.9205 1981.46
5.29801 -11.9205 1981.46
5.04983 -11.9601 1988.04
4.51827 -11.9601 1988.04
3.98671 -11.9601 1988.04
3.45515 -11.9601 1988.04
2.92359 -11.9601 1988.04
2.39203 -11.9601 1988.04
1.86047 -11.9601 1988.04
1.3289 -11.9601 1988.04
0.797342 -11.9601 1988.04
0.265781 -11.9601 1988.04
-0.265781 -11.9601 1988.04
-2.34528 -11.7264 1949.19
-5.53459 -11.3208 1881.76
-10.4142 -10.6509 1770.41
-14.382 -10.1124 1680.9
-14.8315 -10.1124 1680.9
-15.2809 -10.1124 1680.9
-15.7303 -10.1124 1680.9
-16.1798 -10.1124 1680.9
-16.6292 -10.1124 1680.9
-17.0787 -10.1124 1680.9
-17.5281 -10.1124 1680.9
-17.9775 -10.1124 1680.9
-18.427 -10.1124 1680.9
-18.8764 -10.1124 1680.9
-19.3258 -10.1124 1680.9
-19.2635 -10.1983 1695.18
-18.3188 -10.4348 1734.49
-16 -10.9091 1813.33
-12.1683 -11.6505 1936.57
-11.3531 -11.8812 1974.92
-12.1053 -11.8421 1968.42
-12.6316 -11.8421 1968.42
-14.8718 -11.5385 1917.95
-15.3846 -11.5385 1917.95
-15.8974 -11.5385 1917.95
-16.4103 -11.5385 1917.95
-17.1246 -11.5016 1911.82
-17.8344 -11.465 1905.73
-18.3439 -11.465 1905.73
-18.8535 -11.465 1905.73
-19.3631 -11.465 1905.73
-19.8726 -11.465 1905.73
-20.3822 -11.465 1905.73
-20.8917 -11.465 1905.73
-21.4013 -11.465 1905.73
-21.9108 -11.465 1905.73
-22.4204 -11.465 1905.73
-22.9299 -11.465 1905.73
-23.4395 -11.465 1905.73
-23.949 -11.465 1905.73
-24.4586 -11.465 1905.73
-24.9682 -11.465 1905.73
-25.4777 -11.465 1905.73
-25.9873 -11.465 1905.73
-26.4968 -11.465 1905.73
-27.0064 -11.465 1905.73
-27.5159 -11.465 1905.73
-28.0255 -11.465 1905.73
-28.535 -11.465 1905.73
-28.8818 -11.5016 1911.82
-29.393 -11.5016 1911.82
-29.582 -11.5756 1924.12
-29.9355 -11.6129 1930.32
-29.4737 -11.8421 1968.42
-30 -11.8421 1968.42
-30.6885 -11.8033 1961.97
-32.1543 -11.5756 1924.12
-35.6627 -10.8434 1802.41
-36.6667 -10.7143 1780.95
-37.1429 -10.7143 1780.95
-37.7448 -10.6825 1775.67
-38.0952 -10.7143 1780.95
-38.6944 -10.6825 1775.67
-39.1691 -10.6825 1775.67
-39.6439 -10.6825 1775.67
-40.2367 -10.6509 1770.41
-40.7101 -10.6509 1770.41
-41.1834 -10.6509 1770.41
-41.6568 -10.6509 1770.41
-42.1302 -10.6509 1770.41
-42.6036 -10.6509 1770.41
-43.0769 -10.6509 1770.41
-43.5503 -10.6509 1770.41
-44.0237 -10.6509 1770.41
-44.497 -10.6509 1770.41
-44.9704 -10.6509 1770.41
-45.4438 -10.6509 1770.41
-45.9172 -10.6509 1770.41
-46.3905 -10.6509 1770.41
-46.8639 -10.6509 1770.41
-47.3373 -10.6509 1770.41
-47.8107 -10.6509 1770.41
-48.284 -10.6509 1770.41
-48.7574 -10.6509 1770.41
-49.1395 -10.6825 1775.67
-49.5238 -10.7143 1780.95
-49.1743 -11.0092 1829.97
-48.7066 -11.3565 1887.7
-48.5161 -11.6129 1930.32
-48.6275 -11.7647 1955.56
-49.1503 -11.7647 1955.56
-49.6732 -11.7647 1955.56
-51.5 -11.25 1870
-52 -11.25 1870
-52.5 -11.25 1870
-53 -11.25 1870
-53.5826 -11.215 1864.17
-54.1615 -11.1801 1858.39
-54.6584 -11.1801 1858.39
-55.1553 -11.1801 1858.39
-55.6522 -11.1801 1858.39
-56.1491 -11.1801 1858.39
-56.646 -11.1801 1858.39
-57.1429 -11.1801 1858.39
-57.6398 -11.1801 1858.39
-58.1366 -11.1801 1858.39
-58.6335 -11.1801 1858.39
-59.1304 -11.1801 1858.39
-59.6273 -11.1801 1858.39
-60.1242 -11.1801 1858.39
-60.6211 -11.1801 1858.39
-61.118 -11.1801 1858.39
-61.6149 -11.1801 1858.39
-62.0561 -11.215 1864.17
-62.5545 -11.215 1864.17
-63.053 -11.215 1864.17
-63.5 -11.25 1870
-63.3225 -11.7264 1949.19
-63.8436 -11.7264 1949.19
-64.3648 -11.7264 1949.19
-64.9351 -11.6883 1942.86
-65.4545 -11.6883 1942.86
-65.974 -11.6883 1942.86
-66.4935 -11.6883 1942.86
-67.013 -11.6883 1942.86
-67.5728 -11.6505 1936.57
-68.129 -11.6129 1930.32
-68.7179 -11.5385 1917.95
-69.2652 -11.5016 1911.82
-69.7764 -11.5016 1911.82
-70.2875 -11.5016 1911.82
-70.7987 -11.5016 1911.82
-71.3099 -11.5016 1911.82
-71.8211 -11.5016 1911.82
-72.3323 -11.5016 1911.82
-72.8435 -11.5016 1911.82
-73.3546 -11.5016 1911.82
-73.8658 -11.5016 1911.82
-74.377 -11.5016 1911.82
-74.8718 -11.5385 1917.95
-75.3994 -11.5016 1911.82
-75.9105 -11.5016 1911.82
-76.4217 -11.5016 1911.82
-76.9329 -11.5016 1911.82
-77.4441 -11.5016 1911.82
-77.9553 -11.5016 1911.82
-78.4665 -11.5016 1911.82
-78.9776 -11.5016 1911.82
-79.4888 -11.5016 1911.82
-80 -11.5016 1911.82
-80.5112 -11.5016 1911.82
-81.0224 -11.5016 1911.82
-81.5335 -11.5016 1911.82
-82.0447 -11.5016 1911.82
-82.5559 -11.5016 1911.82
-83.0671 -11.5016 1911.82
-83.5783 -11.5016 1911.82
-84.0895 -11.5016 1911.82
-84.6006 -11.5016 1911.82
-85.1282 -11.5385 1917.95
-85.641 -11.5385 1917.95
-86.1538 -11.5385 1917.95
-86.6667 -11.5385 1917.95
-87.1795 -11.5385 1917.95
-87.6923 -11.5385 1917.95
-88.2051 -11.5385 1917.95
-88.7179 -11.5385 1917.95
-89.2308 -11.5385 1917.95
-89.7436 -11.5385 1917.95
-90.2564 -11.5385 1917.95
-90.7348 -11.5016 1911.82
-91.2102 -11.465 1905.73
-91.5 -11.25 1870
-91.9255 -11.1801 1858.39
-92.4224 -11.1801 1858.39
-92.9193 -11.1801 1858.39
-93.3746 -11.1455 1852.63
-93.87 -11.1455 1852.63
-94.3653 -11.1455 1852.63
-94.8607 -11.1455 1852.63
-95.3086 -11.1111 1846.91
-95.8025 -11.1111 1846.91
-96.2963 -11.1111 1846.91
-96.7901 -11.1111 1846.91
-97.284 -11.1111 1846.91
-97.7231 -11.0769 1841.23
-98.2154 -11.0769 1841.23
-98.7077 -11.0769 1841.23
-99.2 -11.0769 1841.23
-99.6923 -11.0769 1841.23
-100.185 -11.0769 1841.23
-100.677 -11.0769 1841.23
-101.169 -11.0769 1841.23
-101.662 -11.0769 1841.23
-102.154 -11.0769 1841.23
-102.577 -11.0429 1835.58
-102.997 -11.0092 1829.97
-103.415 -10.9756 1824.39
-103.83 -10.9422 1818.84
-104.316 -10.9422 1818.84
-104.802 -10.9422 1818.84
-105.289 -10.9422 1818.84
-105.775 -10.9422 1818.84
-106.261 -10.9422 1818.84
-106.748 -10.9422 1818.84
-107.234 -10.9422 1818.84
-107.72 -10.9422 1818.84
-108.207 -10.9422 1818.84
-108.693 -10.9422 1818.84
-109.268 -10.9756 1824.39
-109.666 -10.9422 1818.84
-110.152 -10.9422 1818.84
-110.545 -10.9091 1813.33
-111.03 -10.9091 1813.33
-111.515 -10.9091 1813.33
-112 -10.9091 1813.33
-112.485 -10.9091 1813.33
-112.87 -10.8761 1807.85
-113.353 -10.8761 1807.85
-113.837 -10.8761 1807.85
-114.32 -10.8761 1807.85
-114.804 -10.8761 1807.85
-115.287 -10.8761 1807.85
-115.77 -10.8761 1807.85
-116.254 -10.8761 1807.85
-116.737 -10.8761 1807.85
-117.221 -10.8761 1807.85
-117.704 -10.8761 1807.85
-118.187 -10.8761 1807.85
-118.788 -10.9091 1813.33
-119.154 -10.8761 1807.85
-119.637 -10.8761 1807.85
-120 -10.8434 1802.41
-120.482 -10.8434 1802.41
-120.964 -10.8434 1802.41
-121.446 -10.8434 1802.41
-121.928 -10.8434 1802.41
-122.282 -10.8108 1797
-122.635 -10.7784 1791.62
-123.243 -10.8108 1797
-123.724 -10.8108 1797
-124.204 -10.8108 1797
-124.819 -10.8434 1802.41
-125.301 -10.8434 1802.41
-125.783 -10.8434 1802.41
-126.265 -10.8434 1802.41
-126.747 -10.8434 1802.41
-127.372 -10.8761 1807.85
-127.855 -10.8761 1807.85
-128.485 -10.9091 1813.33
-128.97 -10.9091 1813.33
-129.455 -10.9091 1813.33
-129.939 -10.9091 1813.33
-130.424 -10.9091 1813.33
-130.909 -10.9091 1813.33
-131.239 -10.8761 1807.85
-131.722 -10.8761 1807.85
-132.205 -10.8761 1807.85
-132.689 -10.8761 1807.85
-133.172 -10.8761 1807.85
-133.494 -10.8434 1802.41
-133.976 -10.8434 1802.41
-134.458 -10.8434 1802.41
-134.94 -10.8434 1802.41
-135.422 -10.8434 1802.41
-135.736 -10.8108 1797
-136.386 -10.8434 1802.41
-136.697 -10.8108 1797
-137.177 -10.8108 1797
-137.658 -10.8108 1797
-138.138 -10.8108 1797
-138.619 -10.8108 1797
-139.456 -10.8761 1807.85
-140.121 -10.9091 1813.33
-140.606 -10.9091 1813.33
-141.091 -10.9091 1813.33
-141.576 -10.9091 1813.33
-142.061 -10.9091 1813.33
-142.545 -10.9091 1813.33
-143.03 -10.9091 1813.33
-143.323 -10.8761 1807.85
-143.807 -10.8761 1807.85
-143.904 -10.8108 1797
-144.384 -10.8108 1797
-144.865 -10.8108 1797
-145.345 -10.8108 1797
-145.826 -10.8108 1797
-146.306 -10.8108 1797
-146.787 -10.8108 1797
-147.47 -10.8434 1802.41
-147.952 -10.8434 1802.41
-148.434 -10.8434 1802.41
-149.333 -10.9091 1813.33
-149.818 -10.9091 1813.33
-150.517 -10.9422 1818.84
-151.003 -10.9422 1818.84
-151.489 -10.9422 1818.84
-151.976 -10.9422 1818.84
-152.462 -10.9422 1818.84
-152.948 -10.9422 1818.84
-153.435 -10.9422 1818.84
-153.921 -10.9422 1818.84
-154.407 -10.9422 1818.84
-155.122 -10.9756 1824.39
-155.61 -10.9756 1824.39
-156.098 -10.9756 1824.39
-156.585 -10.9756 1824.39
-157.073 -10.9756 1824.39
-157.561 -10.9756 1824.39
-158.049 -10.9756 1824.39
-158.537 -10.9756 1824.39
-159.024 -10.9756 1824.39
-159.755 -11.0092 1829.97
-160.245 -11.0092 1829.97
-160.982 -11.0429 1835.58
-161.472 -11.0429 1835.58
-162.724 -11.1455 1852.63
-164 -11.25 1870
-165.031 -11.3208 1881.76
-166.076 -11.3924 1893.67
-166.582 -11.3924 1893.67
-167.089 -11.3924 1893.67
-167.595 -11.3924 1893.67
-168.101 -11.3924 1893.67
-168.608 -11.3924 1893.67
-169.114 -11.3924 1893.67
-169.62 -11.3924 1893.67
-170.127 -11.3924 1893.67
-170.633 -11.3924 1893.67
-171.139 -11.3924 1893.67
-171.646 -11.3924 1893.67
-172.152 -11.3924 1893.67
-172.658 -11.3924 1893.67
-173.46 -11.4286 1899.68
-173.968 -11.4286 1899.68
-174.476 -11.4286 1899.68
-174.984 -11.4286 1899.68
-175.492 -11.4286 1899.68
-176 -11.4286 1899.68
-176.508 -11.4286 1899.68
-177.016 -11.4286 1899.68
-177.834 -11.465 1905.73
-178.974 -11.5385 1917.95
-179.807 -11.5756 1924.12
-180.645 -11.6129 1930.32
-181.161 -11.6129 1930.32
-181.677 -11.6129 1930.32
-182.194 -11.6129 1930.32
-183.042 -11.6505 1936.57
-183.56 -11.6505 1936.57
-184.078 -11.6505 1936.57
-184.595 -11.6505 1936.57
-185.113 -11.6505 1936.57
-185.631 -11.6505 1936.57
-186.149 -11.6505 1936.57
-186.667 -11.6505 1936.57
-187.184 -11.6505 1936.57
-187.702 -11.6505 1936.57
-188.22 -11.6505 1936.57
-189.091 -11.6883 1942.86
-189.61 -11.6883 1942.86
-190.13 -11.6883 1942.86
-190.649 -11.6883 1942.86
-191.169 -11.6883 1942.86
-191.688 -11.6883 1942.86
-192.208 -11.6883 1942.86
-192.727 -11.6883 1942.86
-193.247 -11.6883 1942.86
-193.766 -11.6883 1942.86
23.4203 -9.97101 1734.49
35.7003 -11.2052 1949.19
38.6577 -11.5436 2008.05
38.5185 -11.5825 2014.81
37.9798 -11.5825 2014.81
37.4411 -11.5825 2014.81
36.9024 -11.5825 2014.81
36.3636 -11.5825 2014.81
35.8249 -11.5825 2014.81
35.2862 -11.5825 2014.81
34.7475 -11.5825 2014.81
34.2088 -11.5825 2014.81
33.67 -11.5825 2014.81
33.1313 -11.5825 2014.81
32.5926 -11.5825 2014.81
31.6779 -11.5436 2008.05
31.5152 -11.5825 2014.81
30.604 -11.5436 2008.05
30.0671 -11.5436 2008.05
29.5302 -11.5436 2008.05
28.9933 -11.5436 2008.05
28.4564 -11.5436 2008.05
27.9195 -11.5436 2008.05
27.3826 -11.5436 2008.05
26.8456 -11.5436 2008.05
26.3087 -11.5436 2008.05
25.7718 -11.5436 2008.05
25.2349 -11.5436 2008.05
24.698 -11.5436 2008.05
24.1611 -11.5436 2008.05
23.6242 -11.5436 2008.05
23.0872 -11.5436 2008.05
22.5503 -11.5436 2008.05
22.0134 -11.5436 2008.05
21.1371 -11.505 2001.34
20.9396 -11.5436 2008.05
16.2058 -11.0611 1924.12
15.6913 -11.0611 1924.12
15.4839 -11.0968 1930.32
14.9677 -11.0968 1930.32
14.1479 -11.0611 1924.12
13.6334 -11.0611 1924.12
13.119 -11.0611 1924.12
12.6045 -11.0611 1924.12
12.09 -11.0611 1924.12
11.5756 -11.0611 1924.12
11.0611 -11.0611 1924.12
10.5466 -11.0611 1924.12
10.0322 -11.0611 1924.12
9.51768 -11.0611 1924.12
9.00322 -11.0611 1924.12
8.48875 -11.0611 1924.12
7.97428 -11.0611 1924.12
7.74194 -11.0968 1930.32
6.94534 -11.0611 1924.12
6.70968 -11.0968 1930.32
6.19355 -11.0968 1930.32
5.67742 -11.0968 1930.32
5.16129 -11.0968 1930.32
4.64516 -11.0968 1930.32
4.40129 -11.1327 1936.57
5.82781 -11.3907 1981.46
5.29801 -11.3907 1981.46
5.04983 -11.4286 1988.04
4.51827 -11.4286 1988.04
3.98671 -11.4286 1988.04
3.45515 -11.4286 1988.04
2.92359 -11.4286 1988.04
2.39203 -11.4286 1988.04
1.86047 -11.4286 1988.04
1.3289 -11.4286 1988.04
0.797342 -11.4286 1988.04
0.265781 -11.4286 1988.04
-0.265781 -11.4286 1988.04
-0.797342 -11.4286 1988.04
-6.23053 -10.7165 1864.17
-10 -10.2381 1780.95
-14.0113 -9.71751 1690.4
-15.376 -9.58217 1666.85
-15.4622 -9.63585 1676.19
-15.9104 -9.63585 1676.19
-16.3585 -9.63585 1676.19
-16.6292 -9.66292 1680.9
-17.0787 -9.66292 1680.9
-17.5281 -9.66292 1680.9
-17.9775 -9.66292 1680.9
-18.427 -9.66292 1680.9
-18.8764 -9.66292 1680.9
-19.3258 -9.66292 1680.9
-19.7753 -9.66292 1680.9
-18.4971 -9.9422 1729.48
-11.2052 -11.2052 1949.19
-11.0526 -11.3158 1968.42
-11.3531 -11.3531 1974.92
-12.1053 -11.3158 1968.42
-12.8525 -11.2787 1961.97
-14.8718 -11.0256 1917.95
-15.1768 -11.0611 1924.12
-16.1022 -10.9904 1911.82
-16.6134 -10.9904 1911.82
-17.1246 -10.9904 1911.82
-17.8344 -10.9554 1905.73
-18.3439 -10.9554 1905.73
-18.8535 -10.9554 1905.73
-19.3631 -10.9554 1905.73
-19.8726 -10.9554 1905.73
-20.3822 -10.9554 1905.73
-20.8917 -10.9554 1905.73
-21.4013 -10.9554 1905.73
-21.9108 -10.9554 1905.73
-22.4204 -10.9554 1905.73
-22.9299 -10.9554 1905.73
-23.4395 -10.9554 1905.73
-23.949 -10.9554 1905.73
-24.4586 -10.9554 1905.73
-24.9682 -10.9554 1905.73
-25.4777 -10.9554 1905.73
-25.9873 -10.9554 1905.73
-26.4968 -10.9554 1905.73
-27.0064 -10.9554 1905.73
-27.5159 -10.9554 1905.73
-28.0255 -10.9554 1905.73
-28.535 -10.9554 1905.73
-28.8818 -10.9904 1911.82
-29.393 -10.9904 1911.82
-29.7436 -11.0256 1917.95
-29.7735 -11.1327 1936.57
-29.6393 -11.2787 1961.97
-30.1639 -11.2787 1961.97
-30.8497 -11.2418 1955.56
-31.8447 -11.1327 1936.57
-36.1905 -10.2381 1780.95
-36.6667 -10.2381 1780.95
-37.1429 -10.2381 1780.95
-37.7448 -10.2077 1775.67
-38.2196 -10.2077 1775.67
-38.6944 -10.2077 1775.67
-39.1691 -10.2077 1775.67
-39.6439 -10.2077 1775.67
-40.2367 -10.1775 1770.41
-40.7101 -10.1775 1770.41
-41.1834 -10.1775 1770.41
-41.6568 -10.1775 1770.41
-42.1302 -10.1775 1770.41
-42.6036 -10.1775 1770.41
-43.0769 -10.1775 1770.41
-43.5503 -10.1775 1770.41
-44.0237 -10.1775 1770.41
-44.497 -10.1775 1770.41
-44.9704 -10.1775 1770.41
-45.4438 -10.1775 1770.41
-45.9172 -10.1775 1770.41
-46.3905 -10.1775 1770.41
-46.8639 -10.1775 1770.41
-47.3373 -10.1775 1770.41
-47.8107 -10.1775 1770.41
-48.284 -10.1775 1770.41
-48.7574 -10.1775 1770.41
-49.1395 -10.2077 1775.67
-49.4328 -10.2687 1786.27
-49.2683 -10.4878 1824.39
-48.805 -10.8176 1881.76
-48.4142 -11.1327 1936.57
-48.8312 -11.1688 1942.86
-49.2508 -11.2052 1949.19
-49.772 -11.2052 1949.19
-51.5 -10.75 1870
-52.0872 -10.7165 1864.17
-52.5 -10.75 1870
-53.0841 -10.7165 1864.17
-53.5826 -10.7165 1864.17
-54.1615 -10.6832 1858.39
-54.6584 -10.6832 1858.39
-55.1553 -10.6832 1858.39
-55.6522 -10.6832 1858.39
-56.1491 -10.6832 1858.39
-56.646 -10.6832 1858.39
-57.1429 -10.6832 1858.39
-57.6398 -10.6832 1858.39
-58.1366 -10.6832 1858.39
-58.6335 -10.6832 1858.39
-59.1304 -10.6832 1858.39
-59.6273 -10.6832 1858.39
-60.1242 -10.6832 1858.39
-60.6211 -10.6832 1858.39
-61.2346 -10.6173 1846.91
-61.6149 -10.6832 1858.39
-62.0561 -10.7165 1864.17
-62.716 -10.6173 1846.91
-63.1579 -10.6502 1852.63
-63.5514 -10.7165 1864.17
-63.4839 -11.0968 1930.32
-63.8961 -11.1688 1942.86
-64.466 -11.1327 1936.57
-64.9351 -11.1688 1942.86
-65.4545 -11.1688 1942.86
-65.974 -11.1688 1942.86
-66.4935 -11.1688 1942.86
-67.013 -11.1688 1942.86
-67.5325 -11.1688 1942.86
-68.0906 -11.1327 1936.57
-68.7179 -11.0256 1917.95
-69.2652 -10.9904 1911.82
-69.7764 -10.9904 1911.82
-70.2875 -10.9904 1911.82
-70.7987 -10.9904 1911.82
-71.3099 -10.9904 1911.82
-71.8211 -10.9904 1911.82
-72.3323 -10.9904 1911.82
-72.8435 -10.9904 1911.82
-73.3546 -10.9904 1911.82
-73.8658 -10.9904 1911.82
-74.377 -10.9904 1911.82
-74.8882 -10.9904 1911.82
-75.3994 -10.9904 1911.82
-75.9105 -10.9904 1911.82
-76.4217 -10.9904 1911.82
-76.9329 -10.9904 1911.82
-77.4441 -10.9904 1911.82
-77.9553 -10.9904 1911.82
-78.4665 -10.9904 1911.82
-78.9776 -10.9904 1911.82
-79.4888 -10.9904 1911.82
-80 -10.9904 1911.82
-80.5112 -10.9904 1911.82
-81.0224 -10.9904 1911.82
-81.5335 -10.9904 1911.82
-82.0447 -10.9904 1911.82
-82.5559 -10.9904 1911.82
-83.0671 -10.9904 1911.82
-83.5783 -10.9904 1911.82
-84.0895 -10.9904 1911.82
-84.6006 -10.9904 1911.82
-85.1282 -11.0256 1917.95
-85.623 -10.9904 1911.82
-86.1538 -11.0256 1917.95
-86.6667 -11.0256 1917.95
-87.1795 -11.0256 1917.95
-87.6677 -10.9904 1911.82
-88.1789 -10.9904 1911.82
-88.7179 -11.0256 1917.95
-89.2013 -10.9904 1911.82
-89.7436 -11.0256 1917.95
-90.2564 -11.0256 1917.95
-90.7348 -10.9904 1911.82
-91.1392 -10.8861 1893.67
-91.4642 -10.7165 1864.17
-91.8885 -10.6502 1852.63
-92.3839 -10.6502 1852.63
-92.8793 -10.6502 1852.63
-93.3746 -10.6502 1852.63
-93.87 -10.6502 1852.63
-94.3653 -10.6502 1852.63
-94.8607 -10.6502 1852.63
-95.3086 -10.6173 1846.91
-95.8025 -10.6173 1846.91
-96.2963 -10.6173 1846.91
-96.7901 -10.6173 1846.91
-97.2308 -10.5846 1841.23
-97.7231 -10.5846 1841.23
-98.2154 -10.5846 1841.23
-98.7077 -10.5846 1841.23
-99.2 -10.5846 1841.23
-99.6319 -10.5521 1835.58
-100.123 -10.5521 1835.58
-100.677 -10.5846 1841.23
-101.169 -10.5846 1841.23
-101.595 -10.5521 1835.58
-102.086 -10.5521 1835.58
-102.577 -10.5521 1835.58
-103.067 -10.5521 1835.58
-103.343 -10.4559 1818.84
-103.83 -10.4559 1818.84
-104.242 -10.4242 1813.33
-104.727 -10.4242 1813.33
-105.212 -10.4242 1813.33
-105.697 -10.4242 1813.33
-106.182 -10.4242 1813.33
-106.667 -10.4242 1813.33
-107.234 -10.4559 1818.84
-107.636 -10.4242 1813.33
-108.293 -10.4878 1824.39
-108.693 -10.4559 1818.84
-109.179 -10.4559 1818.84
-109.666 -10.4559 1818.84
-110.152 -10.4559 1818.84
-110.545 -10.4242 1813.33
-111.03 -10.4242 1813.33
-111.42 -10.3927 1807.85
-112 -10.4242 1813.33
-112.485 -10.4242 1813.33
-112.771 -10.3614 1802.41
-113.253 -10.3614 1802.41
-113.735 -10.3614 1802.41
-114.32 -10.3927 1807.85
-114.804 -10.3927 1807.85
-115.287 -10.3927 1807.85
-115.77 -10.3927 1807.85
-116.254 -10.3927 1807.85
-116.737 -10.3927 1807.85
-117.221 -10.3927 1807.85
-117.704 -10.3927 1807.85
-118.303 -10.4242 1813.33
-118.671 -10.3927 1807.85
-119.154 -10.3927 1807.85
-119.637 -10.3927 1807.85
-120 -10.3614 1802.41
-120.482 -10.3614 1802.41
-120.841 -10.3303 1797
-121.321 -10.3303 1797
-121.928 -10.3614 1802.41
-122.156 -10.2994 1791.62
-122.635 -10.2994 1791.62
-123.114 -10.2994 1791.62
-123.593 -10.2994 1791.62
-124.204 -10.3303 1797
-124.685 -10.3303 1797
-125.301 -10.3614 1802.41
-125.646 -10.3303 1797
-126.265 -10.3614 1802.41
-126.747 -10.3614 1802.41
-127.372 -10.3927 1807.85
-127.855 -10.3927 1807.85
-128.338 -10.3927 1807.85
-128.822 -10.3927 1807.85
-129.305 -10.3927 1807.85
-129.789 -10.3927 1807.85
-130.424 -10.4242 1813.33
-130.755 -10.3927 1807.85
-131.239 -10.3927 1807.85
-131.879 -10.4242 1813.33
-132.205 -10.3927 1807.85
-132.53 -10.3614 1802.41
-133.012 -10.3614 1802.41
-133.494 -10.3614 1802.41
-133.976 -10.3614 1802.41
-134.458 -10.3614 1802.41
-134.94 -10.3614 1802.41
-135.255 -10.3303 1797
-135.736 -10.3303 1797
-136.216 -10.3303 1797
-136.697 -10.3303 1797
-137.177 -10.3303 1797
-137.658 -10.3303 1797
-138.138 -10.3303 1797
-138.619 -10.3303 1797
-139.277 -10.3614 1802.41
-140.121 -10.4242 1813.33
-140.606 -10.4242 1813.33
-141.091 -10.4242 1813.33
-141.576 -10.4242 1813.33
-142.061 -10.4242 1813.33
-142.545 -10.4242 1813.33
-143.03 -10.4242 1813.33
-143.323 -10.3927 1807.85
-143.807 -10.3927 1807.85
-143.904 -10.3303 1797
-144.384 -10.3303 1797
-144.865 -10.3303 1797
-145.345 -10.3303 1797
-145.826 -10.3303 1797
-146.306 -10.3303 1797
-146.787 -10.3303 1797
-147.267 -10.3303 1797
-147.748 -10.3303 1797
-148.434 -10.3614 1802.41
-149.333 -10.4242 1813.33
-149.818 -10.4242 1813.33
-150.303 -10.4242 1813.33
-150.788 -10.4242 1813.33
-151.489 -10.4559 1818.84
-151.758 -10.4242 1813.33
-152.242 -10.4242 1813.33
-152.727 -10.4242 1813.33
-153.212 -10.4242 1813.33
-153.921 -10.4559 1818.84
-154.407 -10.4559 1818.84
-154.894 -10.4559 1818.84
-155.38 -10.4559 1818.84
-155.866 -10.4559 1818.84
-156.353 -10.4559 1818.84
-156.839 -10.4559 1818.84
-157.325 -10.4559 1818.84
-158.049 -10.4878 1824.39
-158.537 -10.4878 1824.39
-159.024 -10.4878 1824.39
-159.755 -10.5199 1829.97
-160.245 -10.5199 1829.97
-160.734 -10.5199 1829.97
-161.472 -10.5521 1835.58
-161.963 -10.5521 1835.58
-164.528 -10.8176 1881.76
-165.3 -10.8517 1887.7
-166.076 -10.8861 1893.67
-166.582 -10.8861 1893.67
-167.089 -10.8861 1893.67
-167.595 -10.8861 1893.67
-168.101 -10.8861 1893.67
-168.608 -10.8861 1893.67
-169.114 -10.8861 1893.67
-169.62 -10.8861 1893.67
-170.127 -10.8861 1893.67
-170.633 -10.8861 1893.67
-171.139 -10.8861 1893.67
-171.646 -10.8861 1893.67
-172.152 -10.8861 1893.67
-172.658 -10.8861 1893.67
-173.165 -10.8861 1893.67
-173.671 -10.8861 1893.67
-174.476 -10.9206 1899.68
-174.984 -10.9206 1899.68
-175.492 -10.9206 1899.68
-176 -10.9206 1899.68
-176.203 -10.8861 1893.67
-177.016 -10.9206 1899.68
-177.215 -10.8861 1893.67
-178.974 -11.0256 1917.95
-179.807 -11.0611 1924.12
-180.645 -11.0968 1930.32
-180.836 -11.0611 1924.12
-181.35 -11.0611 1924.12
-182.194 -11.0968 1930.32
-182.71 -11.0968 1930.32
-183.56 -11.1327 1936.57
-184.078 -11.1327 1936.57
-184.258 -11.0968 1930.32
-184.774 -11.0968 1930.32
-185.631 -11.1327 1936.57
-186.149 -11.1327 1936.57
-186.667 -11.1327 1936.57
-187.184 -11.1327 1936.57
-187.702 -11.1327 1936.57
-188.571 -11.1688 1942.86
-188.738 -11.1327 1936.57
-189.61 -11.1688 1942.86
-190.13 -11.1688 1942.86
-190.649 -11.1688 1942.86
-191.169 -11.1688 1942.86
-191.688 -11.1688 1942.86
-191.845 -11.1327 1936.57
-192.362 -11.1327 1936.57
-192.88 -11.1327 1936.57
-193.766 -11.1688 1942.86
22.5287 -9.42529 1719.54
38.4 -10.9333 1994.67
39.0572 -11.0438 2014.81
38.5185 -11.0438 2014.81
37.9798 -11.0438 2014.81
37.4411 -11.0438 2014.81
36.9024 -11.0438 2014.81
36.3636 -11.0438 2014.81
35.8249 -11.0438 2014.81
35.2862 -11.0438 2014.81
34.7475 -11.0438 2014.81
34.2088 -11.0438 2014.81
33.67 -11.0438 2014.81
33.1313 -11.0438 2014.81
32.5926 -11.0438 2014.81
31.6779 -11.0067 2008.05
31.1409 -11.0067 2008.05
30.9764 -11.0438 2014.81
30.0671 -11.0067 2008.05
29.5302 -11.0067 2008.05
28.9933 -11.0067 2008.05
28.4564 -11.0067 2008.05
27.9195 -11.0067 2008.05
27.3826 -11.0067 2008.05
26.8456 -11.0067 2008.05
26.3087 -11.0067 2008.05
25.7718 -11.0067 2008.05
25.2349 -11.0067 2008.05
24.698 -11.0067 2008.05
23.8127 -10.9699 2001.34
23.6242 -11.0067 2008.05
23.0872 -11.0067 2008.05
22.5503 -11.0067 2008.05
19.6721 -10.7541 1961.97
21.4765 -11.0067 2008.05
20.602 -10.9699 2001.34
16.2058 -10.5466 1924.12
15.6913 -10.5466 1924.12
15.1768 -10.5466 1924.12
14.6624 -10.5466 1924.12
14.1479 -10.5466 1924.12
13.6334 -10.5466 1924.12
13.119 -10.5466 1924.12
12.6045 -10.5466 1924.12
12.09 -10.5466 1924.12
11.5756 -10.5466 1924.12
11.0611 -10.5466 1924.12
10.5466 -10.5466 1924.12
10.0322 -10.5466 1924.12
9.51768 -10.5466 1924.12
9.00322 -10.5466 1924.12
8.48875 -10.5466 1924.12
7.97428 -10.5466 1924.12
7.74194 -10.5806 1930.32
7.22581 -10.5806 1930.32
6.70968 -10.5806 1930.32
6.19355 -10.5806 1930.32
5.67742 -10.5806 1930.32
5.16129 -10.5806 1930.32
4.64516 -10.5806 1930.32
4.12903 -10.5806 1930.32
5.82781 -10.8609 1981.46
5.0165 -10.8251 1974.92
5.04983 -10.897 1988.04
4.51827 -10.897 1988.04
3.98671 -10.897 1988.04
3.45515 -10.897 1988.04
2.92359 -10.897 1988.04
2.39203 -10.897 1988.04
1.86047 -10.897 1988.04
1.3289 -10.897 1988.04
0.797342 -10.897 1988.04
0.265781 -10.897 1988.04
-0.265781 -10.897 1988.04
-1.0596 -10.8609 1981.46
-6.45963 -10.1863 1858.39
-9.58084 -9.82036 1791.62
-14.382 -9.21348 1680.9
-16.4384 -8.9863 1639.45
-15.8217 -9.13649 1666.85
-16.0894 -9.16201 1671.51
-16.3585 -9.18768 1676.19
-16.9832 -9.16201 1671.51
-17.0787 -9.21348 1680.9
-17.5281 -9.21348 1680.9
-17.9775 -9.21348 1680.9
-18.427 -9.21348 1680.9
-18.8764 -9.21348 1680.9
-19.3258 -9.21348 1680.9
-19.6056 -9.23944 1685.63
-17.2271 -9.67552 1765.19
-14.8148 -10.1235 1846.91
-11.0526 -10.7895 1968.42
-11.3531 -10.8251 1974.92
-12.1053 -10.7895 1968.42
-12.6316 -10.7895 1968.42
-14.6624 -10.5466 1924.12
-15.3846 -10.5128 1917.95
-16.1022 -10.4792 1911.82
-16.6134 -10.4792 1911.82
-17.1246 -10.4792 1911.82
-17.8344 -10.4459 1905.73
-18.3439 -10.4459 1905.73
-18.8535 -10.4459 1905.73
-19.3631 -10.4459 1905.73
-19.8726 -10.4459 1905.73
-20.3822 -10.4459 1905.73
-20.8917 -10.4459 1905.73
-21.4013 -10.4459 1905.73
-21.9108 -10.4459 1905.73
-22.4204 -10.4459 1905.73
-22.9299 -10.4459 1905.73
-23.4395 -10.4459 1905.73
-23.949 -10.4459 1905.73
-24.4586 -10.4459 1905.73
-24.9682 -10.4459 1905.73
-25.4777 -10.4459 1905.73
-25.9873 -10.4459 1905.73
-26.4968 -10.4459 1905.73
-27.0064 -10.4459 1905.73
-27.5159 -10.4459 1905.73
-28.0255 -10.4459 1905.73
-28.535 -10.4459 1905.73
-28.8818 -10.4792 1911.82
-29.5541 -10.4459 1905.73
-29.9042 -10.4792 1911.82
-30.0965 -10.5466 1924.12
-30.1299 -10.6494 1942.86
-30.8091 -10.6149 1936.57
-32.4051 -10.3797 1893.67
-32.1543 -10.5466 1924.12
-35.122 -10 1824.39
-36.6667 -9.7619 1780.95
-37.1429 -9.7619 1780.95
-37.7448 -9.73294 1775.67
-38.2196 -9.73294 1775.67
-38.6944 -9.73294 1775.67
-39.1691 -9.73294 1775.67
-39.6439 -9.73294 1775.67
-40.2367 -9.70414 1770.41
-40.7101 -9.70414 1770.41
-41.1834 -9.70414 1770.41
-41.6568 -9.70414 1770.41
-42.1302 -9.70414 1770.41
-42.6036 -9.70414 1770.41
-43.0769 -9.70414 1770.41
-43.5503 -9.70414 1770.41
-44.0237 -9.70414 1770.41
-44.497 -9.70414 1770.41
-44.9704 -9.70414 1770.41
-45.4438 -9.70414 1770.41
-45.9172 -9.70414 1770.41
-46.3905 -9.70414 1770.41
-46.8639 -9.70414 1770.41
-47.3373 -9.70414 1770.41
-47.8107 -9.70414 1770.41
-48.284 -9.70414 1770.41
-48.6647 -9.73294 1775.67
-49.1395 -9.73294 1775.67
-49.4328 -9.79104 1786.27
-49.5468 -9.90937 1807.85
-49 -10.25 1870
-48.9172 -10.4459 1905.73
-49.5238 -10.4127 1899.68
-49.2508 -10.684 1949.19
-50.2564 -10.5128 1917.95
-51.5 -10.25 1870
-52 -10.25 1870
-52.5857 -10.2181 1864.17
-53.0841 -10.2181 1864.17
-53.5826 -10.2181 1864.17
-54.1615 -10.1863 1858.39
-54.6584 -10.1863 1858.39
-55.1553 -10.1863 1858.39
-55.6522 -10.1863 1858.39
-56.1491 -10.1863 1858.39
-56.646 -10.1863 1858.39
-57.1429 -10.1863 1858.39
-57.6398 -10.1863 1858.39
-58.1366 -10.1863 1858.39
-58.6335 -10.1863 1858.39
-59.1304 -10.1863 1858.39
-59.6273 -10.1863 1858.39
-60.1242 -10.1863 1858.39
-60.7407 -10.1235 1846.91
-61.4067 -10.0306 1829.97
-62.2222 -9.84985 1797
-62.3853 -10.0306 1829.97
-62.9787 -9.9696 1818.84
-63.1579 -10.1548 1852.63
-63.5514 -10.2181 1864.17
-63.4839 -10.5806 1930.32
-64.1534 -10.4792 1911.82
-64.4156 -10.6494 1942.86
-64.9838 -10.6149 1936.57
-65.5016 -10.6149 1936.57
-66.0194 -10.6149 1936.57
-66.4935 -10.6494 1942.86
-67.013 -10.6494 1942.86
-67.5325 -10.6494 1942.86
-68.129 -10.5806 1930.32
-68.7179 -10.5128 1917.95
-69.2652 -10.4792 1911.82
-69.7764 -10.4792 1911.82
-70.2875 -10.4792 1911.82
-70.7987 -10.4792 1911.82
-71.3099 -10.4792 1911.82
-71.8211 -10.4792 1911.82
-72.3323 -10.4792 1911.82
-72.8435 -10.4792 1911.82
-73.3546 -10.4792 1911.82
-73.8658 -10.4792 1911.82
-74.377 -10.4792 1911.82
-74.8882 -10.4792 1911.82
-75.3994 -10.4792 1911.82
-75.9105 -10.4792 1911.82
-76.4217 -10.4792 1911.82
-76.9329 -10.4792 1911.82
-77.4441 -10.4792 1911.82
-77.9553 -10.4792 1911.82
-78.4665 -10.4792 1911.82
-78.9776 -10.4792 1911.82
-79.4888 -10.4792 1911.82
-80 -10.4792 1911.82
-80.5112 -10.4792 1911.82
-81.0224 -10.4792 1911.82
-81.5335 -10.4792 1911.82
-82.0447 -10.4792 1911.82
-82.5559 -10.4792 1911.82
-83.0671 -10.4792 1911.82
-83.5783 -10.4792 1911.82
-84.0895 -10.4792 1911.82
-84.6006 -10.4792 1911.82
-85.1118 -10.4792 1911.82
-85.623 -10.4792 1911.82
-86.1538 -10.5128 1917.95
-86.6454 -10.4792 1911.82
-87.1795 -10.5128 1917.95
-87.6677 -10.4792 1911.82
-88.1789 -10.4792 1911.82
-88.6901 -10.4792 1911.82
-89.2013 -10.4792 1911.82
-89.7125 -10.4792 1911.82
-90.2564 -10.5128 1917.95
-90.7348 -10.4792 1911.82
-91.246 -10.4792 1911.82
-91.4642 -10.2181 1864.17
-91.8885 -10.1548 1852.63
-92.3839 -10.1548 1852.63
-92.8793 -10.1548 1852.63
-93.3746 -10.1548 1852.63
-93.87 -10.1548 1852.63
-94.321 -10.1235 1846.91
-94.8148 -10.1235 1846.91
-95.3086 -10.1235 1846.91
-95.8025 -10.1235 1846.91
-96.2462 -10.0923 1841.23
-96.7385 -10.0923 1841.23
-97.2308 -10.0923 1841.23
-97.7231 -10.0923 1841.23
-98.2154 -10.0923 1841.23
-98.7077 -10.0923 1841.23
-99.1411 -10.0613 1835.58
-99.6319 -10.0613 1835.58
-100.185 -10.0923 1841.23
-100.613 -10.0613 1835.58
-101.104 -10.0613 1835.58
-101.595 -10.0613 1835.58
-102.086 -10.0613 1835.58
-102.577 -10.0613 1835.58
-102.997 -10.0306 1829.97
-103.343 -9.9696 1818.84
-103.83 -9.9696 1818.84
-104.242 -9.93939 1813.33
-104.727 -9.93939 1813.33
-105.212 -9.93939 1813.33
-105.697 -9.93939 1813.33
-106.182 -9.93939 1813.33
-106.667 -9.93939 1813.33
-107.152 -9.93939 1813.33
-107.636 -9.93939 1813.33
-108.207 -9.9696 1818.84
-108.693 -9.9696 1818.84
-109.179 -9.9696 1818.84
-109.666 -9.9696 1818.84
-110.152 -9.9696 1818.84
-110.545 -9.93939 1813.33
-110.937 -9.90937 1807.85
-111.515 -9.93939 1813.33
-112 -9.93939 1813.33
-112.387 -9.90937 1807.85
-112.771 -9.87952 1802.41
-113.253 -9.87952 1802.41
-113.735 -9.87952 1802.41
-114.217 -9.87952 1802.41
-114.699 -9.87952 1802.41
-115.181 -9.87952 1802.41
-115.663 -9.87952 1802.41
-116.254 -9.90937 1807.85
-116.737 -9.90937 1807.85
-117.221 -9.90937 1807.85
-117.704 -9.90937 1807.85
-118.187 -9.90937 1807.85
-118.671 -9.90937 1807.85
-119.154 -9.90937 1807.85
-119.637 -9.90937 1807.85
-119.88 -9.84985 1797
-120.36 -9.84985 1797
-120.841 -9.84985 1797
-121.321 -9.84985 1797
-121.802 -9.84985 1797
-122.156 -9.82036 1791.62
-122.635 -9.82036 1791.62
-123.114 -9.82036 1791.62
-123.593 -9.82036 1791.62
-124.072 -9.82036 1791.62
-124.685 -9.84985 1797
-125.165 -9.84985 1797
-125.783 -9.87952 1802.41
-126.265 -9.87952 1802.41
-126.747 -9.87952 1802.41
-127.372 -9.90937 1807.85
-127.855 -9.90937 1807.85
-128.338 -9.90937 1807.85
-128.822 -9.90937 1807.85
-129.455 -9.93939 1813.33
-129.789 -9.90937 1807.85
-130.272 -9.90937 1807.85
-130.755 -9.90937 1807.85
-131.239 -9.90937 1807.85
-131.722 -9.90937 1807.85
-132.205 -9.90937 1807.85
-132.53 -9.87952 1802.41
-133.012 -9.87952 1802.41
-133.494 -9.87952 1802.41
-133.976 -9.87952 1802.41
-134.294 -9.84985 1797
-134.775 -9.84985 1797
-135.255 -9.84985 1797
-135.736 -9.84985 1797
-136.216 -9.84985 1797
-136.697 -9.84985 1797
-137.177 -9.84985 1797
-137.658 -9.84985 1797
-138.138 -9.84985 1797
-138.619 -9.84985 1797
-139.456 -9.90937 1807.85
-139.759 -9.87952 1802.41
-140.241 -9.87952 1802.41
-141.091 -9.93939 1813.33
-141.39 -9.90937 1807.85
-142.061 -9.93939 1813.33
-142.169 -9.87952 1802.41
-143.03 -9.93939 1813.33
-143.515 -9.93939 1813.33
-144 -9.93939 1813.33
-143.904 -9.84985 1797
-144.384 -9.84985 1797
-144.865 -9.84985 1797
-145.345 -9.84985 1797
-145.826 -9.84985 1797
-146.306 -9.84985 1797
-146.787 -9.84985 1797
-147.267 -9.84985 1797
-147.952 -9.87952 1802.41
-148.64 -9.90937 1807.85
-149.333 -9.93939 1813.33
-150.03 -9.9696 1818.84
-150.303 -9.93939 1813.33
-150.788 -9.93939 1813.33
-151.273 -9.93939 1813.33
-151.758 -9.93939 1813.33
-152.242 -9.93939 1813.33
-152.727 -9.93939 1813.33
-153.212 -9.93939 1813.33
-153.921 -9.9696 1818.84
-154.407 -9.9696 1818.84
-154.894 -9.9696 1818.84
-155.38 -9.9696 1818.84
-155.866 -9.9696 1818.84
-156.353 -9.9696 1818.84
-156.839 -9.9696 1818.84
-157.325 -9.9696 1818.84
-157.812 -9.9696 1818.84
-158.537 -10 1824.39
-159.024 -10 1824.39
-159.755 -10.0306 1829.97
-160.245 -10.0306 1829.97
-160.734 -10.0306 1829.97
-161.223 -10.0306 1829.97
-161.963 -10.0613 1835.58
-164.795 -10.347 1887.7
-165.3 -10.347 1887.7
-166.076 -10.3797 1893.67
-166.582 -10.3797 1893.67
-167.089 -10.3797 1893.67
-167.595 -10.3797 1893.67
-168.101 -10.3797 1893.67
-168.608 -10.3797 1893.67
-169.114 -10.3797 1893.67
-169.62 -10.3797 1893.67
-170.127 -10.3797 1893.67
-170.633 -10.3797 1893.67
-171.139 -10.3797 1893.67
-171.646 -10.3797 1893.67
-172.152 -10.3797 1893.67
-172.658 -10.3797 1893.67
-173.46 -10.4127 1899.68
-173.671 -10.3797 1893.67
-174.177 -10.3797 1893.67
-174.684 -10.3797 1893.67
-175.19 -10.3797 1893.67
-175.696 -10.3797 1893.67
-176.203 -10.3797 1893.67
-176.709 -10.3797 1893.67
-177.834 -10.4459 1905.73
-178.658 -10.4792 1911.82
-179.487 -10.5128 1917.95
-180.322 -10.5466 1924.12
-180.513 -10.5128 1917.95
-181.35 -10.5466 1924.12
-182.194 -10.5806 1930.32
-182.379 -10.5466 1924.12
-182.894 -10.5466 1924.12
-183.408 -10.5466 1924.12
-183.923 -10.5466 1924.12
-184.774 -10.5806 1930.32
-185.29 -10.5806 1930.32
-185.806 -10.5806 1930.32
-186.323 -10.5806 1930.32
-187.184 -10.6149 1936.57
-187.702 -10.6149 1936.57
-188.22 -10.6149 1936.57
-188.738 -10.6149 1936.57
-189.256 -10.6149 1936.57
-190.13 -10.6494 1942.86
-190.291 -10.6149 1936.57
-191.169 -10.6494 1942.86
-191.688 -10.6494 1942.86
-192.208 -10.6494 1942.86
-192.362 -10.6149 1936.57
-192.88 -10.6149 1936.57
-193.398 -10.6149 1936.57
22.8242 -8.99135 1724.5
39.596 -10.5051 2014.81
39.0572 -10.5051 2014.81
38.5185 -10.5051 2014.81
37.9798 -10.5051 2014.81
37.4411 -10.5051 2014.81
36.9024 -10.5051 2014.81
36.3636 -10.5051 2014.81
35.8249 -10.5051 2014.81
35.2862 -10.5051 2014.81
34.7475 -10.5051 2014.81
34.2088 -10.5051 2014.81
33.67 -10.5051 2014.81
33.1313 -10.5051 2014.81
32.2148 -10.4698 2008.05
31.6779 -10.4698 2008.05
31.1409 -10.4698 2008.05
30.604 -10.4698 2008.05
30.0671 -10.4698 2008.05
29.5302 -10.4698 2008.05
28.9933 -10.4698 2008.05
28.4564 -10.4698 2008.05
27.9195 -10.4698 2008.05
27.3826 -10.4698 2008.05
26.8456 -10.4698 2008.05
26.3087 -10.4698 2008.05
25.7718 -10.4698 2008.05
25.5892 -10.5051 2014.81
25.0505 -10.5051 2014.81
24.1611 -10.4698 2008.05
21.9142 -10.297 1974.92
20.3922 -10.1961 1955.56
19.2208 -10.1299 1942.86
18.7013 -10.1299 1942.86
17.8641 -10.0971 1936.57
17.0323 -10.0645 1930.32
16.2058 -10.0322 1924.12
15.6913 -10.0322 1924.12
15.1768 -10.0322 1924.12
14.6624 -10.0322 1924.12
14.1479 -10.0322 1924.12
13.6334 -10.0322 1924.12
13.119 -10.0322 1924.12
12.6045 -10.0322 1924.12
12.09 -10.0322 1924.12
11.5756 -10.0322 1924.12
11.0611 -10.0322 1924.12
10.5466 -10.0322 1924.12
10.0322 -10.0322 1924.12
9.51768 -10.0322 1924.12
9.00322 -10.0322 1924.12
8.48875 -10.0322 1924.12
7.97428 -10.0322 1924.12
7.17949 -10 1917.95
6.94534 -10.0322 1924.12
6.43087 -10.0322 1924.12
6.19355 -10.0645 1930.32
5.67742 -10.0645 1930.32
5.16129 -10.0645 1930.32
4.64516 -10.0645 1930.32
4.40129 -10.0971 1936.57
5.82781 -10.3311 1981.46
5.5814 -10.3654 1988.04
5.04983 -10.3654 1988.04
4.51827 -10.3654 1988.04
3.98671 -10.3654 1988.04
3.45515 -10.3654 1988.04
2.92359 -10.3654 1988.04
2.39203 -10.3654 1988.04
1.86047 -10.3654 1988.04
1.3289 -10.3654 1988.04
0.797342 -10.3654 1988.04
0.265781 -10.3654 1988.04
-0.265781 -10.3654 1988.04
-1.57895 -10.2632 1968.42
-7.13846 -9.6 1841.23
-10.6195 -9.20354 1765.19
-18.0371 -8.27586 1587.27
-17.2973 -8.43243 1617.3
-18.2306 -8.36461 1604.29
-17.9946 -8.45528 1621.68
-17.5824 -8.57143 1643.96
-16.8067 -8.7395 1676.19
-17.0787 -8.76404 1680.9
-17.5281 -8.76404 1680.9
-17.9775 -8.76404 1680.9
-18.427 -8.76404 1680.9
-18.8764 -8.76404 1680.9
-19.3258 -8.76404 1680.9
-19.6056 -8.78873 1685.63
-16.0961 -9.36937 1797
-14.2056 -9.71963 1864.17
-11.5033 -10.1961 1955.56
-11.3531 -10.297 1974.92
-12.1053 -10.2632 1968.42
-13.0719 -10.1961 1955.56
-15.0799 -9.96805 1911.82
-15.5911 -9.96805 1911.82
-16.1022 -9.96805 1911.82
-16.6134 -9.96805 1911.82
-17.3248 -9.93631 1905.73
-17.8344 -9.93631 1905.73
-18.3439 -9.93631 1905.73
-18.8535 -9.93631 1905.73
-19.3631 -9.93631 1905.73
-19.8726 -9.93631 1905.73
-20.3822 -9.93631 1905.73
-20.8917 -9.93631 1905.73
-21.4013 -9.93631 1905.73
-21.9108 -9.93631 1905.73
-22.4204 -9.93631 1905.73
-22.9299 -9.93631 1905.73
-23.4395 -9.93631 1905.73
-23.949 -9.93631 1905.73
-24.4586 -9.93631 1905.73
-24.9682 -9.93631 1905.73
-25.4777 -9.93631 1905.73
-25.9873 -9.93631 1905.73
-26.4968 -9.93631 1905.73
-27.0064 -9.93631 1905.73
-27.5159 -9.93631 1905.73
-28.0255 -9.93631 1905.73
-28.535 -9.93631 1905.73
-28.8818 -9.96805 1911.82
-29.5541 -9.93631 1905.73
-30.3797 -9.87342 1893.67
-32.3926 -9.57055 1835.58
-33.7349 -9.39759 1802.41
-33.0864 -9.62963 1846.91
-33.5802 -9.62963 1846.91
-35.7143 -9.28571 1780.95
-36.1905 -9.28571 1780.95
-36.6667 -9.28571 1780.95
-37.1429 -9.28571 1780.95
-37.7448 -9.25816 1775.67
-38.2196 -9.25816 1775.67
-38.6944 -9.25816 1775.67
-39.1691 -9.25816 1775.67
-39.6439 -9.25816 1775.67
-40.2367 -9.23077 1770.41
-40.7101 -9.23077 1770.41
-41.1834 -9.23077 1770.41
-41.6568 -9.23077 1770.41
-42.1302 -9.23077 1770.41
-42.6036 -9.23077 1770.41
-43.0769 -9.23077 1770.41
-43.5503 -9.23077 1770.41
-44.0237 -9.23077 1770.41
-44.497 -9.23077 1770.41
-44.9704 -9.23077 1770.41
-45.4438 -9.23077 1770.41
-45.9172 -9.23077 1770.41
-46.3905 -9.23077 1770.41
-46.8639 -9.23077 1770.41
-47.3373 -9.23077 1770.41
-47.8107 -9.23077 1770.41
-48.284 -9.23077 1770.41
-48.7574 -9.23077 1770.41
-49.1395 -9.25816 1775.67
-49.6142 -9.25816 1775.67
-49.7297 -9.36937 1797
-50.0302 -9.42598 1807.85
-50.9524 -9.28571 1780.95
-51.2575 -9.34132 1791.62
-51.3939 -9.45455 1813.33
-52.0482 -9.39759 1802.41
-51.5888 -9.71963 1864.17
-52.0872 -9.71963 1864.17
-52.5857 -9.71963 1864.17
-53.1677 -9.68944 1858.39
-53.5826 -9.71963 1864.17
-54.1615 -9.68944 1858.39
-54.6584 -9.68944 1858.39
-55.1553 -9.68944 1858.39
-55.6522 -9.68944 1858.39
-56.1491 -9.68944 1858.39
-56.646 -9.68944 1858.39
-57.1429 -9.68944 1858.39
-57.6398 -9.68944 1858.39
-58.1366 -9.68944 1858.39
-58.6335 -9.68944 1858.39
-59.1304 -9.68944 1858.39
-59.6273 -9.68944 1858.39
-60.1242 -9.68944 1858.39
-60.8 -9.6 1841.23
-61.6314 -9.42598 1807.85
-62.8902 -9.01734 1729.48
-64 -8.66667 1662.22
-64.1808 -8.81356 1690.4
