33.9568 -31.9424 2152.52
33.3813 -31.9424 2152.52
32.4014 -31.828 2144.8
31.828 -31.828 2144.8
31.2545 -31.828 2144.8
30.681 -31.828 2144.8
30.1075 -31.828 2144.8
29.5341 -31.828 2144.8
28.9606 -31.828 2144.8
28 -31.7143 2137.14
27.0463 -31.6014 2129.54
26.4769 -31.6014 2129.54
25.5319 -31.4894 2121.99
23.8596 -31.1579 2099.65
23.2982 -31.1579 2099.65
22.3776 -31.049 2092.31
20.0687 -30.5155 2056.36
19.1781 -30.411 2049.32
17.2973 -30 2021.62
13.2899 -28.9251 1949.19
12.7687 -28.9251 1949.19
13.1579 -29.2105 1968.42
12.9373 -29.3069 1974.92
13.0233 -29.5017 1988.04
12.8 -29.6 1994.67
13.5135 -30 2021.62
12.973 -30 2021.62
13.0612 -30.2041 2035.37
13.1507 -30.411 2049.32
13.2414 -30.6207 2063.45
15.3191 -31.4894 2121.99
14.7518 -31.4894 2121.99
14.1844 -31.4894 2121.99
13.617 -31.4894 2121.99
13.0496 -31.4894 2121.99
12.4823 -31.4894 2121.99
11.9149 -31.4894 2121.99
11.3475 -31.4894 2121.99
10.7801 -31.4894 2121.99
10.2128 -31.4894 2121.99
9.64539 -31.4894 2121.99
9.07801 -31.4894 2121.99
8.51064 -31.4894 2121.99
7.94326 -31.4894 2121.99
7.37589 -31.4894 2121.99
6.80851 -31.4894 2121.99
6.24113 -31.4894 2121.99
5.37102 -31.3781 2114.49
4.80565 -31.3781 2114.49
4.24028 -31.3781 2114.49
3.38028 -31.2676 2107.04
1.66667 -30.8333 2077.78
0.274914 -30.5155 2056.36
-0.819113 -30.3072 2042.32
-1.89831 -30.1017 2028.47
-2.7027 -30 2021.62
-4.76821 -29.404 1981.46
-5.78947 -29.2105 1968.42
-6.79739 -29.0196 1955.56
-7.557 -28.9251 1949.19
-8.07818 -28.9251 1949.19
-8.83117 -28.8312 1942.86
-8.88889 -29.0196 1955.56
-10.9904 -28.3706 1911.82
-12.79 -27.837 1875.86
-9.76898 -29.3069 1974.92
-7.91809 -30.3072 2042.32
-7.72414 -30.6207 2063.45
-8.27586 -30.6207 2063.45
-8.82759 -30.6207 2063.45
-9.62199 -30.5155 2056.36
-9.93103 -30.6207 2063.45
-11.4286 -30.2041 2035.37
-10.7958 -30.7266 2070.59
-13.8667 -29.6 1994.67
-14.4 -29.6 1994.67
-15.1495 -29.5017 1988.04
-15.6811 -29.5017 1988.04
-16.4238 -29.404 1981.46
-16.9536 -29.404 1981.46
-17.4834 -29.404 1981.46
-20.1917 -28.3706 1911.82
-20.7029 -28.3706 1911.82
-21.2141 -28.3706 1911.82
-21.7252 -28.3706 1911.82
-22.2364 -28.3706 1911.82
-22.5641 -28.4615 1917.95
-23.0769 -28.4615 1917.95
-23.4084 -28.5531 1924.12
-23.5599 -28.7379 1936.57
-24.0777 -28.7379 1936.57
-24.2345 -28.9251 1949.19
-24.2105 -29.2105 1968.42
-24.918 -29.1148 1961.97
-23.7838 -30 2021.62
-24.3243 -30 2021.62
-24.8649 -30 2021.62
-25.4054 -30 2021.62
-25.9459 -30 2021.62
-26.4865 -30 2021.62
-27.027 -30 2021.62
-27.5676 -30 2021.62
-28.1081 -30 2021.62
-28.6486 -30 2021.62
-29.1892 -30 2021.62
-29.7297 -30 2021.62
-30.2703 -30 2021.62
-30.6441 -30.1017 2028.47
-31.1864 -30.1017 2028.47
-31.7288 -30.1017 2028.47
-32.2712 -30.1017 2028.47
-32.6531 -30.2041 2035.37
-33.1973 -30.2041 2035.37
-33.5836 -30.3072 2042.32
-34.1297 -30.3072 2042.32
-34.8299 -30.2041 2035.37
-35.0685 -30.411 2049.32
-35.9184 -30.2041 2035.37
-36.6102 -30.1017 2028.47
-37.2973 -30 2021.62
-39.2157 -29.0196 1955.56
-40.2581 -28.6452 1930.32
-40.2614 -29.0196 1955.56
-40.7843 -29.0196 1955.56
-41.6828 -28.7379 1936.57
-43.2704 -27.9245 1881.76
-43.7736 -27.9245 1881.76
-43.8217 -28.2803 1905.73
-44.4444 -28.1905 1899.68
-45.283 -27.9245 1881.76
-45.0161 -28.5531 1924.12
-45.0814 -28.9251 1949.19
-45.8252 -28.7379 1936.57
-44.6259 -30.2041 2035.37
-44.6897 -30.6207 2063.45
-45.3608 -30.5155 2056.36
-45.9107 -30.5155 2056.36
-46.4605 -30.5155 2056.36
-46.8966 -30.6207 2063.45
-47.4483 -30.6207 2063.45
-48 -30.6207 2063.45
-48.5517 -30.6207 2063.45
-49.1034 -30.6207 2063.45
-49.5502 -30.7266 2070.59
-50.1038 -30.7266 2070.59
-50.7586 -30.6207 2063.45
-51.3103 -30.6207 2063.45
-51.7647 -30.7266 2070.59
-52.5086 -30.5155 2056.36
-53.3333 -30.2041 2035.37
-54.1414 -29.899 2014.81
-54.5946 -30 2021.62
-55.3846 -29.699 2001.34
-56 -29.6 1994.67
-56.6887 -29.404 1981.46
-57.3684 -29.2105 1968.42
-58.1107 -28.9251 1949.19
-59.5639 -27.6636 1864.17
-59.3548 -28.6452 1930.32
-60.6211 -27.5776 1858.39
-61.118 -27.5776 1858.39
-61.6149 -27.5776 1858.39
-62.1118 -27.5776 1858.39
-62.5 -27.75 1870
-62.9467 -27.837 1875.86
-63.5 -27.75 1870
-63.746 -28.1905 1899.68
-63.4667 -29.6 1994.67
-64 -29.6 1994.67
-64.5847 -29.5017 1988.04
-65.1163 -29.5017 1988.04
-65.6478 -29.5017 1988.04
-66.1794 -29.5017 1988.04
-66.711 -29.5017 1988.04
-67.2425 -29.5017 1988.04
-67.8146 -29.404 1981.46
-68.3444 -29.404 1981.46
-68.8742 -29.404 1981.46
-69.404 -29.404 1981.46
-69.9338 -29.404 1981.46
-70.4636 -29.404 1981.46
-70.9934 -29.404 1981.46
-71.5232 -29.404 1981.46
-72.053 -29.404 1981.46
-72.6073 -29.3069 1974.92
-73.1353 -29.3069 1974.92
-73.6634 -29.3069 1974.92
-74.1914 -29.3069 1974.92
-74.7195 -29.3069 1974.92
-75.2475 -29.3069 1974.92
-75.7756 -29.3069 1974.92
-76.3036 -29.3069 1974.92
-76.8317 -29.3069 1974.92
-77.3597 -29.3069 1974.92
-77.8878 -29.3069 1974.92
-78.4158 -29.3069 1974.92
-78.9439 -29.3069 1974.92
-79.4719 -29.3069 1974.92
-80 -29.3069 1974.92
-80.5281 -29.3069 1974.92
-81.0561 -29.3069 1974.92
-81.5842 -29.3069 1974.92
-82.1122 -29.3069 1974.92
-82.6403 -29.3069 1974.92
-83.1683 -29.3069 1974.92
-83.6964 -29.3069 1974.92
-84.2244 -29.3069 1974.92
-84.7525 -29.3069 1974.92
-85.2805 -29.3069 1974.92
-85.8086 -29.3069 1974.92
-86.3366 -29.3069 1974.92
-86.8647 -29.3069 1974.92
-87.3927 -29.3069 1974.92
-87.9208 -29.3069 1974.92
-88.4488 -29.3069 1974.92
-88.9769 -29.3069 1974.92
-89.505 -29.3069 1974.92
-90.033 -29.3069 1974.92
-90.596 -29.404 1981.46
-91.1258 -29.404 1981.46
-91.6556 -29.404 1981.46
-92.1854 -29.404 1981.46
-92.7152 -29.404 1981.46
-93.245 -29.404 1981.46
-93.7748 -29.404 1981.46
-94.3522 -29.5017 1988.04
-94.9333 -29.6 1994.67
-95.4667 -29.6 1994.67
-96 -29.6 1994.67
-96.5333 -29.6 1994.67
-97.0667 -29.6 1994.67
-97.6589 -29.699 2001.34
-98.194 -29.699 2001.34
-98.7291 -29.699 2001.34
-99.2 -29.6 1994.67
-99.7333 -29.6 1994.67
-100.066 -29.3069 1974.92
-100.731 -29.5017 1988.04
-101.405 -29.699 2001.34
-102.088 -29.899 2014.81
-102.475 -29.699 2001.34
-102.706 -29.3069 1974.92
-102.71 -28.6452 1930.32
-102.93 -28.2803 1905.73
-103.59 -28.4615 1917.95
-104.026 -28.3706 1911.82
-104.459 -28.2803 1905.73
-104.968 -28.2803 1905.73
-105.316 -28.1013 1893.67
-105.741 -28.0126 1887.7
-106.329 -28.1013 1893.67
-106.921 -28.1905 1899.68
-107.17 -27.9245 1881.76
-107.673 -27.9245 1881.76
-108 -27.75 1870
-108.411 -27.6636 1864.17
-108.91 -27.6636 1864.17
-109.317 -27.5776 1858.39
-109.721 -27.4923 1852.63
-110.217 -27.4923 1852.63
-110.712 -27.4923 1852.63
-111.207 -27.4923 1852.63
-111.703 -27.4923 1852.63
-112.198 -27.4923 1852.63
-112.693 -27.4923 1852.63
-113.189 -27.4923 1852.63
-113.58 -27.4074 1846.91
-114.074 -27.4074 1846.91
-114.568 -27.4074 1846.91
-115.062 -27.4074 1846.91
-115.556 -27.4074 1846.91
-115.938 -27.3231 1841.23
-116.431 -27.3231 1841.23
-116.923 -27.3231 1841.23
-117.415 -27.3231 1841.23
-117.908 -27.3231 1841.23
-118.4 -27.3231 1841.23
-118.892 -27.3231 1841.23
-119.385 -27.3231 1841.23
-119.877 -27.3231 1841.23
-120.369 -27.3231 1841.23
-120.862 -27.3231 1841.23
-121.354 -27.3231 1841.23
-121.718 -27.2393 1835.58
-122.209 -27.2393 1835.58
-122.699 -27.2393 1835.58
-123.19 -27.2393 1835.58
-123.681 -27.2393 1835.58
-124.172 -27.2393 1835.58
-124.663 -27.2393 1835.58
-125.153 -27.2393 1835.58
-125.505 -27.156 1829.97
-125.994 -27.156 1829.97
-126.483 -27.156 1829.97
-126.972 -27.156 1829.97
-127.607 -27.2393 1835.58
-127.951 -27.156 1829.97
-128.589 -27.2393 1835.58
-129.08 -27.2393 1835.58
-129.571 -27.2393 1835.58
-130.061 -27.2393 1835.58
-130.552 -27.2393 1835.58
-131.043 -27.2393 1835.58
-131.534 -27.2393 1835.58
-132.025 -27.2393 1835.58
-132.515 -27.2393 1835.58
-133.006 -27.2393 1835.58
-133.497 -27.2393 1835.58
-133.988 -27.2393 1835.58
-134.479 -27.2393 1835.58
-134.969 -27.2393 1835.58
-135.46 -27.2393 1835.58
-135.951 -27.2393 1835.58
-136.442 -27.2393 1835.58
-136.933 -27.2393 1835.58
-137.423 -27.2393 1835.58
-137.914 -27.2393 1835.58
-138.405 -27.2393 1835.58
-138.896 -27.2393 1835.58
-139.387 -27.2393 1835.58
-139.877 -27.2393 1835.58
-140.554 -27.3231 1841.23
-140.859 -27.2393 1835.58
-141.538 -27.3231 1841.23
-142.031 -27.3231 1841.23
-142.523 -27.3231 1841.23
-142.822 -27.2393 1835.58
-143.508 -27.3231 1841.23
-144 -27.3231 1841.23
-144.492 -27.3231 1841.23
-144.985 -27.3231 1841.23
-145.477 -27.3231 1841.23
-146.173 -27.4074 1846.91
-146.667 -27.4074 1846.91
-147.16 -27.4074 1846.91
-147.654 -27.4074 1846.91
-148.148 -27.4074 1846.91
-148.642 -27.4074 1846.91
-149.35 -27.4923 1852.63
-150.062 -27.5776 1858.39
-151.447 -27.9245 1881.76
-152.177 -28.0126 1887.7
-153.61 -28.3706 1911.82
-155.081 -28.7379 1936.57
-158.127 -29.699 2001.34
-159.729 -30.1017 2028.47
-162.222 -30.8333 2077.78
-169.962 -33.5094 2258.11
-169.888 -33.2584 2241.2
-172.567 -34.023 2292.72
-175.748 -34.9606 2355.91
-181.157 -36.6942 2472.73
-179.355 -35.8065 2412.9
-190.714 -39.6429 2671.43
-192.432 -40 2695.5
-173.037 -32.8889 2216.3
-193.874 -40 2695.5
-196.697 -40.7339 2744.95
-172.419 -32.0578 2160.29
-173.333 -32.1739 2168.12
-172.571 -31.7143 2137.14
-172.811 -31.6014 2129.54
-173.05 -31.4894 2121.99
-173.286 -31.3781 2114.49
-173.852 -31.3781 2114.49
-174.085 -31.2676 2107.04
-174.648 -31.2676 2107.04
-175.887 -31.4894 2121.99
-175.775 -31.2676 2107.04
-176.338 -31.2676 2107.04
-176.901 -31.2676 2107.04
-177.465 -31.2676 2107.04
-178.028 -31.2676 2107.04
-178.592 -31.2676 2107.04
-179.155 -31.2676 2107.04
-179.718 -31.2676 2107.04
-180.282 -31.2676 2107.04
-180.845 -31.2676 2107.04
-181.408 -31.2676 2107.04
-181.972 -31.2676 2107.04
-182.535 -31.2676 2107.04
-183.099 -31.2676 2107.04
-183.662 -31.2676 2107.04
-184.225 -31.2676 2107.04
-184.789 -31.2676 2107.04
-185.352 -31.2676 2107.04
-185.915 -31.2676 2107.04
-186.479 -31.2676 2107.04
-187.042 -31.2676 2107.04
-187.986 -31.3781 2114.49
-189.324 -31.6014 2129.54
-190.681 -31.828 2144.8
-191.655 -31.9424 2152.52
-193.043 -32.1739 2168.12
-195.72 -32.7675 2208.12
-197.175 -33.0112 2224.54
-197.77 -33.0112 2224.54
-199.251 -33.2584 2241.2
-204.514 -34.5525 2328.4
-204.651 -34.4186 2319.38
-206.25 -34.6875 2337.5
-206.381 -34.5525 2328.4
-201.791 -33.1343 2232.84
-201.481 -32.8889 2216.3
-207.752 -34.4186 2319.38
-200.436 -32.2909 2176
-198.014 -31.4894 2121.99
-200.722 -32.0578 2160.29
45.9206 -31.4801 2160.29
45.343 -31.4801 2160.29
44.7653 -31.4801 2160.29
44.1877 -31.4801 2160.29
43.6101 -31.4801 2160.29
43.0325 -31.4801 2160.29
42.4549 -31.4801 2160.29
41.8773 -31.4801 2160.29
41.2996 -31.4801 2160.29
40.722 -31.4801 2160.29
40.1444 -31.4801 2160.29
39.5668 -31.4801 2160.29
38.5612 -31.3669 2152.52
37.9856 -31.3669 2152.52
37.4101 -31.3669 2152.52
36.8345 -31.3669 2152.52
36.259 -31.3669 2152.52
35.6835 -31.3669 2152.52
35.1079 -31.3669 2152.52
34.5324 -31.3669 2152.52
33.9568 -31.3669 2152.52
33.3813 -31.3669 2152.52
32.8058 -31.3669 2152.52
31.828 -31.2545 2144.8
31.2545 -31.2545 2144.8
30.681 -31.2545 2144.8
30.1075 -31.2545 2144.8
29.5341 -31.2545 2144.8
28.9606 -31.2545 2144.8
28 -31.1429 2137.14
27.0463 -31.032 2129.54
26.0993 -30.922 2121.99
25.5319 -30.922 2121.99
24.5936 -30.8127 2114.49
22.9371 -30.4895 2092.31
21.6667 -30.2778 2077.78
21.1111 -30.2778 2077.78
18.5034 -29.6599 2035.37
17.6271 -29.5593 2028.47
12.6861 -28.2201 1936.57
12.4675 -28.3117 1942.86
12.549 -28.4967 1955.56
12.6316 -28.6842 1968.42
12.7152 -28.8742 1981.46
12.8 -29.0667 1994.67
12.5753 -29.1639 2001.34
12.6599 -29.3603 2014.81
13.3788 -29.7611 2042.32
13.7931 -30.069 2063.45
12.921 -29.9656 2056.36
13.3333 -30.2778 2077.78
14.0845 -30.7042 2107.04
14.1844 -30.922 2121.99
13.2862 -30.8127 2114.49
13.0496 -30.922 2121.99
12.4823 -30.922 2121.99
11.9149 -30.922 2121.99
11.3475 -30.922 2121.99
10.7801 -30.922 2121.99
10.2128 -30.922 2121.99
9.64539 -30.922 2121.99
9.07801 -30.922 2121.99
8.51064 -30.922 2121.99
7.94326 -30.922 2121.99
7.37589 -30.922 2121.99
6.80851 -30.922 2121.99
5.9364 -30.8127 2114.49
5.37102 -30.8127 2114.49
4.80565 -30.8127 2114.49
3.94366 -30.7042 2107.04
3.38028 -30.7042 2107.04
2.52632 -30.5965 2099.65
-0.273038 -29.7611 2042.32
-1.62162 -29.4595 2021.62
-1.09589 -29.863 2049.32
-3.98671 -28.9701 1988.04
-8.32808 -27.5079 1887.7
-10.3704 -26.9136 1846.91
-7.97428 -28.0386 1924.12
-9.39683 -27.6825 1899.68
-9.90476 -27.6825 1899.68
-11.5 -27.25 1870
-14.4578 -26.2651 1802.41
-10.0971 -28.2201 1936.57
-14.6341 -26.5854 1824.39
-8.82943 -29.1639 2001.34
-8.64865 -29.4595 2021.62
-8.46416 -29.7611 2042.32
-8.52234 -29.9656 2056.36
-8.82759 -30.069 2063.45
-9.62199 -29.9656 2056.36
-9.93103 -30.069 2063.45
-11.661 -29.5593 2028.47
-11.7406 -29.7611 2042.32
-13.8667 -29.0667 1994.67
-14.6179 -28.9701 1988.04
-15.1495 -28.9701 1988.04
-16.1056 -28.7789 1974.92
-16.4238 -28.8742 1981.46
-17.1617 -28.7789 1974.92
-17.6898 -28.7789 1974.92
-20.1917 -27.8594 1911.82
-20.7029 -27.8594 1911.82
-21.2141 -27.8594 1911.82
-21.7252 -27.8594 1911.82
-22.2364 -27.8594 1911.82
-22.3794 -28.0386 1924.12
-23.0769 -27.9487 1917.95
-23.4084 -28.0386 1924.12
-23.5599 -28.2201 1936.57
-24.2581 -28.129 1930.32
-24.5955 -28.2201 1936.57
-24.7557 -28.4039 1949.19
-24.918 -28.5902 1961.97
-23.9731 -29.3603 2014.81
-24.5118 -29.3603 2014.81
-24.8649 -29.4595 2021.62
-25.4054 -29.4595 2021.62
-25.9459 -29.4595 2021.62
-26.4865 -29.4595 2021.62
-27.027 -29.4595 2021.62
-27.5676 -29.4595 2021.62
-28.1081 -29.4595 2021.62
-28.6486 -29.4595 2021.62
-29.1892 -29.4595 2021.62
-29.7297 -29.4595 2021.62
-30.2703 -29.4595 2021.62
-30.6441 -29.5593 2028.47
-31.1864 -29.5593 2028.47
-31.7288 -29.5593 2028.47
-32.2712 -29.5593 2028.47
-32.8136 -29.5593 2028.47
-33.1973 -29.6599 2035.37
-33.7415 -29.6599 2035.37
-34.2857 -29.6599 2035.37
-34.8299 -29.6599 2035.37
-34.7586 -30.069 2063.45
-35.9184 -29.6599 2035.37
-36.9024 -29.3603 2014.81
-37.8667 -29.0667 1994.67
-38.9474 -28.6842 1968.42
-39.4737 -28.6842 1968.42
-41.761 -27.4214 1881.76
-42.1451 -27.5079 1887.7
-42.1725 -27.8594 1911.82
-43.3856 -27.3354 1875.86
-44.878 -26.5854 1824.39
-45.1534 -26.7485 1835.58
-45.3251 -26.9969 1852.63
-45.9259 -26.9136 1846.91
-46.4198 -26.9136 1846.91
-45.5305 -28.0386 1924.12
-45.8252 -28.2201 1936.57
-44.8649 -29.4595 2021.62
-44.811 -29.9656 2056.36
-45.3608 -29.9656 2056.36
-45.9107 -29.9656 2056.36
-46.4605 -29.9656 2056.36
-46.8966 -30.069 2063.45
-47.4483 -30.069 2063.45
-48 -30.069 2063.45
-48.5517 -30.069 2063.45
-48.9965 -30.173 2070.59
-49.6552 -30.069 2063.45
-50.2069 -30.069 2063.45
-48.9377 -31.9414 2191.94
-51.3103 -30.069 2063.45
-51.9588 -29.9656 2056.36
-52.6962 -29.7611 2042.32
-53.3333 -29.6599 2035.37
-53.6986 -29.863 2049.32
-54.9333 -29.0667 1994.67
-55.5482 -28.9701 1988.04
-56.5472 -28.4039 1949.19
-57.508 -27.8594 1911.82
-58.0892 -27.7707 1905.73
-58.2524 -28.2201 1936.57
-59.6273 -27.0807 1858.39
-60.1858 -26.9969 1852.63
-60.6211 -27.0807 1858.39
-61.118 -27.0807 1858.39
-61.5576 -27.1651 1864.17
-62.0561 -27.1651 1864.17
-62.5545 -27.1651 1864.17
-63.053 -27.1651 1864.17
-63.4483 -27.3354 1875.86
-63.6422 -27.8594 1911.82
-63.7377 -28.5902 1961.97
-64.0532 -28.9701 1988.04
-64.5847 -28.9701 1988.04
-65.1163 -28.9701 1988.04
-65.6478 -28.9701 1988.04
-66.1794 -28.9701 1988.04
-66.711 -28.9701 1988.04
-67.2425 -28.9701 1988.04
-67.8146 -28.8742 1981.46
-68.3444 -28.8742 1981.46
-68.8742 -28.8742 1981.46
-69.404 -28.8742 1981.46
-69.9338 -28.8742 1981.46
-70.4636 -28.8742 1981.46
-70.9934 -28.8742 1981.46
-71.5232 -28.8742 1981.46
-72.053 -28.8742 1981.46
-72.6073 -28.7789 1974.92
-73.1353 -28.7789 1974.92
-73.6634 -28.7789 1974.92
-74.1914 -28.7789 1974.92
-74.7195 -28.7789 1974.92
-75.2475 -28.7789 1974.92
-75.7756 -28.7789 1974.92
-76.3036 -28.7789 1974.92
-76.8317 -28.7789 1974.92
-77.3597 -28.7789 1974.92
-77.8878 -28.7789 1974.92
-78.4158 -28.7789 1974.92
-78.9439 -28.7789 1974.92
-79.4719 -28.7789 1974.92
-80 -28.7789 1974.92
-80.5281 -28.7789 1974.92
-81.0561 -28.7789 1974.92
-81.5842 -28.7789 1974.92
-82.1122 -28.7789 1974.92
-82.6403 -28.7789 1974.92
-83.1683 -28.7789 1974.92
-83.6964 -28.7789 1974.92
-84.2244 -28.7789 1974.92
-84.7525 -28.7789 1974.92
-85.2805 -28.7789 1974.92
-85.8086 -28.7789 1974.92
-86.3366 -28.7789 1974.92
-86.8647 -28.7789 1974.92
-87.3927 -28.7789 1974.92
-87.9208 -28.7789 1974.92
-88.4488 -28.7789 1974.92
-88.9769 -28.7789 1974.92
-89.505 -28.7789 1974.92
-90.033 -28.7789 1974.92
-90.596 -28.8742 1981.46
-91.1258 -28.8742 1981.46
-91.6556 -28.8742 1981.46
-92.1854 -28.8742 1981.46
-92.7152 -28.8742 1981.46
-93.245 -28.8742 1981.46
-93.7748 -28.8742 1981.46
-94.3522 -28.9701 1988.04
-94.8837 -28.9701 1988.04
-95.4667 -29.0667 1994.67
-96 -29.0667 1994.67
-96.5333 -29.0667 1994.67
-97.0667 -29.0667 1994.67
-97.6589 -29.1639 2001.34
-98.1333 -29.0667 1994.67
-98.6667 -29.0667 1994.67
-99.0728 -28.8742 1981.46
-99.538 -28.7789 1974.92
-100.066 -28.7789 1974.92
-100.526 -28.6842 1968.42
-100.915 -28.4967 1955.56
-101.94 -29.1639 2001.34
-101.538 -27.9487 1917.95
-101.911 -27.7707 1905.73
-102.349 -27.6825 1899.68
-102.93 -27.7707 1905.73
-103.291 -27.5949 1893.67
-103.797 -27.5949 1893.67
-104.304 -27.5949 1893.67
-104.654 -27.4214 1881.76
-105.157 -27.4214 1881.76
-105.58 -27.3354 1875.86
-106 -27.25 1870
-106.5 -27.25 1870
-107 -27.25 1870
-107.586 -27.3354 1875.86
-107.913 -27.1651 1864.17
-108.323 -27.0807 1858.39
-108.91 -27.1651 1864.17
-109.317 -27.0807 1858.39
-109.721 -26.9969 1852.63
-110.217 -26.9969 1852.63
-110.712 -26.9969 1852.63
-111.207 -26.9969 1852.63
-111.703 -26.9969 1852.63
-112.099 -26.9136 1846.91
-112.593 -26.9136 1846.91
-113.086 -26.9136 1846.91
-113.477 -26.8308 1841.23
-113.969 -26.8308 1841.23
-114.568 -26.9136 1846.91
-114.954 -26.8308 1841.23
-115.446 -26.8308 1841.23
-115.938 -26.8308 1841.23
-116.543 -26.9136 1846.91
-116.923 -26.8308 1841.23
-117.415 -26.8308 1841.23
-117.908 -26.8308 1841.23
-118.4 -26.8308 1841.23
-118.892 -26.8308 1841.23
-119.385 -26.8308 1841.23
-119.755 -26.7485 1835.58
-120.245 -26.7485 1835.58
-120.736 -26.7485 1835.58
-121.227 -26.7485 1835.58
-121.718 -26.7485 1835.58
-122.209 -26.7485 1835.58
-122.569 -26.6667 1829.97
-123.19 -26.7485 1835.58
-123.547 -26.6667 1829.97
-124.037 -26.6667 1829.97
-124.663 -26.7485 1835.58
-125.015 -26.6667 1829.97
-125.505 -26.6667 1829.97
-125.994 -26.6667 1829.97
-126.483 -26.6667 1829.97
-126.972 -26.6667 1829.97
-127.462 -26.6667 1829.97
-127.951 -26.6667 1829.97
-128.589 -26.7485 1835.58
-129.08 -26.7485 1835.58
-129.571 -26.7485 1835.58
-130.061 -26.7485 1835.58
-130.552 -26.7485 1835.58
-131.043 -26.7485 1835.58
-131.534 -26.7485 1835.58
-132.025 -26.7485 1835.58
-132.515 -26.7485 1835.58
-133.006 -26.7485 1835.58
-133.497 -26.7485 1835.58
-133.988 -26.7485 1835.58
-134.479 -26.7485 1835.58
-134.969 -26.7485 1835.58
-135.46 -26.7485 1835.58
-135.951 -26.7485 1835.58
-136.442 -26.7485 1835.58
-136.933 -26.7485 1835.58
-137.423 -26.7485 1835.58
-137.914 -26.7485 1835.58
-138.405 -26.7485 1835.58
-138.896 -26.7485 1835.58
-139.387 -26.7485 1835.58
-139.877 -26.7485 1835.58
-140.368 -26.7485 1835.58
-140.859 -26.7485 1835.58
-141.35 -26.7485 1835.58
-141.84 -26.7485 1835.58
-142.331 -26.7485 1835.58
-142.822 -26.7485 1835.58
-143.313 -26.7485 1835.58
-143.804 -26.7485 1835.58
-144.492 -26.8308 1841.23
-144.785 -26.7485 1835.58
-145.477 -26.8308 1841.23
-145.969 -26.8308 1841.23
-146.462 -26.8308 1841.23
-146.954 -26.8308 1841.23
-147.654 -26.9136 1846.91
-148.148 -26.9136 1846.91
-148.642 -26.9136 1846.91
-149.35 -26.9969 1852.63
-150.062 -27.0807 1858.39
-151.223 -27.3354 1875.86
-151.95 -27.4214 1881.76
-152.911 -27.5949 1893.67
-154.598 -28.0386 1924.12
-157.096 -28.7789 1974.92
-158.926 -29.2617 2008.05
-160.544 -29.6599 2035.37
-170.303 -33.0303 2266.67
-169.219 -32.4164 2224.54
-170.827 -32.782 2249.62
-171.429 -32.782 2249.62
-176.378 -34.3307 2355.91
-175.504 -33.7984 2319.38
-188.297 -38.0786 2613.1
-187.586 -37.5862 2579.31
-193.153 -39.2793 2695.5
-175.396 -32.9057 2258.11
-195.636 -39.6364 2720
-196.364 -39.6364 2720
-173.333 -31.5942 2168.12
-172.903 -31.2545 2144.8
-174.493 -31.5942 2168.12
-174.388 -31.3669 2152.52
-173.617 -30.922 2121.99
-173.852 -30.8127 2114.49
-175.089 -31.032 2129.54
-174.648 -30.7042 2107.04
-175.211 -30.7042 2107.04
-175.775 -30.7042 2107.04
-176.338 -30.7042 2107.04
-176.901 -30.7042 2107.04
-177.465 -30.7042 2107.04
-178.028 -30.7042 2107.04
-178.592 -30.7042 2107.04
-179.155 -30.7042 2107.04
-179.718 -30.7042 2107.04
-180.282 -30.7042 2107.04
-180.845 -30.7042 2107.04
-181.408 -30.7042 2107.04
-181.972 -30.7042 2107.04
-182.535 -30.7042 2107.04
-183.099 -30.7042 2107.04
-183.662 -30.7042 2107.04
-184.225 -30.7042 2107.04
-184.789 -30.7042 2107.04
-185.352 -30.7042 2107.04
-185.915 -30.7042 2107.04
-186.855 -30.8127 2114.49
-187.042 -30.7042 2107.04
-188.754 -31.032 2129.54
-189.714 -31.1429 2137.14
-189.504 -30.922 2121.99
-192.464 -31.5942 2168.12
-191.429 -31.1429 2137.14
-196.58 -32.4164 2224.54
-198.943 -32.9057 2258.11
-200.456 -33.1559 2275.29
-202.934 -33.668 2310.42
-205.984 -34.3307 2355.91
-238.424 -42.9557 2947.78
-207.747 -34.4664 2365.22
-233.208 -41.1321 2822.64
-216.569 -36.4854 2503.77
-208.125 -34.0625 2337.5
-217.333 -36.3333 2493.33
-215.738 -35.7377 2452.46
-201.46 -31.8248 2183.94
-200.722 -31.4801 2160.29
45.9206 -30.9025 2160.29
45.343 -30.9025 2160.29
44.7653 -30.9025 2160.29
44.1877 -30.9025 2160.29
43.6101 -30.9025 2160.29
43.0325 -30.9025 2160.29
42.4549 -30.9025 2160.29
41.8773 -30.9025 2160.29
41.2996 -30.9025 2160.29
40.722 -30.9025 2160.29
39.7122 -30.7914 2152.52
39.1367 -30.7914 2152.52
38.5612 -30.7914 2152.52
37.9856 -30.7914 2152.52
37.4101 -30.7914 2152.52
36.8345 -30.7914 2152.52
36.259 -30.7914 2152.52
35.6835 -30.7914 2152.52
35.1079 -30.7914 2152.52
34.5324 -30.7914 2152.52
33.9568 -30.7914 2152.52
33.3813 -30.7914 2152.52
32.4014 -30.681 2144.8
31.828 -30.681 2144.8
31.2545 -30.681 2144.8
30.681 -30.681 2144.8
30.1075 -30.681 2144.8
29.5341 -30.681 2144.8
28.9606 -30.681 2144.8
28 -30.5714 2137.14
27.0463 -30.4626 2129.54
26.0993 -30.3546 2121.99
25.5319 -30.3546 2121.99
22.4221 -29.6194 2070.59
23.2982 -30.0351 2099.65
21.3149 -29.6194 2070.59
20.0687 -29.4158 2056.36
18.1695 -29.0169 2028.47
16.9697 -28.8215 2014.81
12.6861 -27.7023 1936.57
12.4675 -27.7922 1942.86
12.549 -27.9739 1955.56
12.6316 -28.1579 1968.42
12.7152 -28.3444 1981.46
12.4917 -28.4385 1988.04
12.2667 -28.5333 1994.67
12.6599 -28.8215 2014.81
12.7458 -29.0169 2028.47
12.8328 -29.215 2042.32
13.2414 -29.5172 2063.45
13.986 -29.9301 2092.31
14.7518 -30.3546 2121.99
13.193 -30.0351 2099.65
13.2862 -30.2473 2114.49
13.0496 -30.3546 2121.99
12.4823 -30.3546 2121.99
12.242 -30.4626 2129.54
11.3475 -30.3546 2121.99
10.7801 -30.3546 2121.99
10.2128 -30.3546 2121.99
9.64539 -30.3546 2121.99
9.07801 -30.3546 2121.99
8.51064 -30.3546 2121.99
7.94326 -30.3546 2121.99
7.37589 -30.3546 2121.99
6.80851 -30.3546 2121.99
5.9364 -30.2473 2114.49
5.67376 -30.3546 2121.99
4.80565 -30.2473 2114.49
4.24028 -30.2473 2114.49
3.38028 -30.1408 2107.04
1.95122 -29.8258 2085.02
0.83045 -29.6194 2070.59
0.555556 -29.7222 2077.78
-2.16216 -28.9189 2021.62
-5.22876 -27.9739 1955.56
-8.55346 -26.9182 1881.76
-7.45981 -27.5241 1924.12
-10.2181 -26.6667 1864.17
-10.0629 -26.9182 1881.76
-11.4286 -26.5839 1858.39
-11.2853 -26.8339 1875.86
-12 -26.75 1870
-14.9398 -25.7831 1802.41
-13.4161 -26.5839 1858.39
-8.82943 -28.6288 2001.34
-8.40678 -29.0169 2028.47
-9.18919 -28.9189 2021.62
-8.52234 -29.4158 2056.36
-9.31507 -29.3151 2049.32
-10.3401 -29.1156 2035.37
-10.1718 -29.4158 2056.36
-11.4286 -29.1156 2035.37
-11.0345 -29.5172 2063.45
-13.4228 -28.7248 2008.05
-14.1806 -28.6288 2001.34
-15.3642 -28.3444 1981.46
-16.1056 -28.2508 1974.92
-16.8421 -28.1579 1968.42
-17.3684 -28.1579 1968.42
-17.8947 -28.1579 1968.42
-20.1917 -27.3482 1911.82
-20.7029 -27.3482 1911.82
-21.2141 -27.3482 1911.82
-21.7252 -27.3482 1911.82
-22.2364 -27.3482 1911.82
-22.5641 -27.4359 1917.95
-23.0769 -27.4359 1917.95
-23.2258 -27.6129 1930.32
-23.9228 -27.5241 1924.12
-24.2581 -27.6129 1930.32
-24.5955 -27.7023 1936.57
-24.9351 -27.7922 1942.86
-24.918 -28.0656 1961.97
-23.9731 -28.8215 2014.81
-24.3243 -28.9189 2021.62
-25.0505 -28.8215 2014.81
-25.4054 -28.9189 2021.62
-25.9459 -28.9189 2021.62
-26.4865 -28.9189 2021.62
-27.027 -28.9189 2021.62
-27.5676 -28.9189 2021.62
-28.1081 -28.9189 2021.62
-28.6486 -28.9189 2021.62
-29.1892 -28.9189 2021.62
-29.7297 -28.9189 2021.62
-30.1017 -29.0169 2028.47
-30.6441 -29.0169 2028.47
-31.1864 -29.0169 2028.47
-31.7288 -29.0169 2028.47
-32.2712 -29.0169 2028.47
-32.6531 -29.1156 2035.37
-33.3559 -29.0169 2028.47
-33.5836 -29.215 2042.32
-34.2857 -29.1156 2035.37
-34.8299 -29.1156 2035.37
-35.2218 -29.215 2042.32
-36.0678 -29.0169 2028.47
-37.047 -28.7248 2008.05
-37.4411 -28.8215 2014.81
-37.551 -29.1156 2035.37
-38.6577 -28.7248 2008.05
-40.7742 -27.6129 1930.32
-42.5 -26.75 1870
-43.792 -26.1774 1829.97
-42.9206 -27.1746 1899.68
-44.7706 -26.1774 1829.97
-45.1534 -26.2577 1835.58
-45.9574 -26.0182 1818.84
-46.2385 -26.1774 1829.97
-45.4603 -27.1746 1899.68
-45.8599 -27.2611 1905.73
-46.045 -27.5241 1924.12
-45.9016 -28.0656 1961.97
-44.811 -29.4158 2056.36
-45.3608 -29.4158 2056.36
-45.9107 -29.4158 2056.36
-46.4605 -29.4158 2056.36
-47.0103 -29.4158 2056.36
-47.3356 -29.6194 2070.59
-48 -29.5172 2063.45
-48.4429 -29.6194 2070.59
-48.6713 -29.9301 2092.31
-49.6552 -29.5172 2063.45
-50 -29.7222 2077.78
-50.7586 -29.5172 2063.45
-51.3103 -29.5172 2063.45
-51.8621 -29.5172 2063.45
-52.5086 -29.4158 2056.36
-53.3333 -29.1156 2035.37
-53.3333 -29.7222 2077.78
-54.8495 -28.6288 2001.34
-55.6291 -28.3444 1981.46
-56.5472 -27.8827 1949.19
-57.0684 -27.8827 1949.19
-58.567 -26.6667 1864.17
-58.3923 -27.5241 1924.12
-59.6273 -26.5839 1858.39
-60.1858 -26.5015 1852.63
-60.6211 -26.5839 1858.39
-61.118 -26.5839 1858.39
-61.6149 -26.5839 1858.39
-62.1118 -26.5839 1858.39
-62.5545 -26.6667 1864.17
-63.053 -26.6667 1864.17
-63.4483 -26.8339 1875.86
-63.537 -27.5241 1924.12
-63.8961 -27.7922 1942.86
-64.0532 -28.4385 1988.04
-64.5847 -28.4385 1988.04
-65.1163 -28.4385 1988.04
-65.6478 -28.4385 1988.04
-66.1794 -28.4385 1988.04
-66.711 -28.4385 1988.04
-67.2425 -28.4385 1988.04
-67.8146 -28.3444 1981.46
-68.3444 -28.3444 1981.46
-68.8742 -28.3444 1981.46
-69.404 -28.3444 1981.46
-69.9338 -28.3444 1981.46
-70.4636 -28.3444 1981.46
-70.9934 -28.3444 1981.46
-71.5232 -28.3444 1981.46
-72.0792 -28.2508 1974.92
-72.6073 -28.2508 1974.92
-73.1353 -28.2508 1974.92
-73.6634 -28.2508 1974.92
-74.1914 -28.2508 1974.92
-74.7195 -28.2508 1974.92
-75.2475 -28.2508 1974.92
-75.7756 -28.2508 1974.92
-76.3036 -28.2508 1974.92
-76.8317 -28.2508 1974.92
-77.3597 -28.2508 1974.92
-77.8878 -28.2508 1974.92
-78.4158 -28.2508 1974.92
-78.9439 -28.2508 1974.92
-79.4719 -28.2508 1974.92
-80 -28.2508 1974.92
-80.5281 -28.2508 1974.92
-81.0561 -28.2508 1974.92
-81.5842 -28.2508 1974.92
-82.1122 -28.2508 1974.92
-82.6403 -28.2508 1974.92
-83.1683 -28.2508 1974.92
-83.6964 -28.2508 1974.92
-84.2244 -28.2508 1974.92
-84.7525 -28.2508 1974.92
-85.2805 -28.2508 1974.92
-85.8086 -28.2508 1974.92
-86.3366 -28.2508 1974.92
-86.8647 -28.2508 1974.92
-87.3927 -28.2508 1974.92
-87.9208 -28.2508 1974.92
-88.4488 -28.2508 1974.92
-88.9769 -28.2508 1974.92
-89.505 -28.2508 1974.92
-90.033 -28.2508 1974.92
-90.596 -28.3444 1981.46
-91.1258 -28.3444 1981.46
-91.6556 -28.3444 1981.46
-92.1854 -28.3444 1981.46
-92.7152 -28.3444 1981.46
-93.245 -28.3444 1981.46
-93.7748 -28.3444 1981.46
-94.3046 -28.3444 1981.46
-94.8837 -28.4385 1988.04
-95.4667 -28.5333 1994.67
-96.1074 -28.7248 2008.05
-96.5886 -28.6288 2001.34
-97.1237 -28.6288 2001.34
-97.6 -28.5333 1994.67
-98.1333 -28.5333 1994.67
-98.6047 -28.4385 1988.04
-99.0728 -28.3444 1981.46
-99.6678 -28.4385 1988.04
-100.132 -28.3444 1981.46
-100.459 -28.0656 1961.97
-100.712 -27.7023 1936.57
-101.508 -28.0656 1961.97
-101.333 -27.1746 1899.68
-101.841 -27.1746 1899.68
-102.208 -27.0032 1887.7
-102.785 -27.0886 1893.67
-103.145 -26.9182 1881.76
-103.574 -26.8339 1875.86
-104.075 -26.8339 1875.86
-104.577 -26.8339 1875.86
-105 -26.75 1870
-105.421 -26.6667 1864.17
-105.919 -26.6667 1864.17
-106.335 -26.5839 1858.39
-107 -26.75 1870
-107.329 -26.5839 1858.39
-107.826 -26.5839 1858.39
-108.323 -26.5839 1858.39
-108.731 -26.5015 1852.63
-109.226 -26.5015 1852.63
-109.721 -26.5015 1852.63
-110.217 -26.5015 1852.63
-110.712 -26.5015 1852.63
-111.111 -26.4198 1846.91
-111.605 -26.4198 1846.91
-112.099 -26.4198 1846.91
-112.593 -26.4198 1846.91
-112.985 -26.3385 1841.23
-113.477 -26.3385 1841.23
-113.969 -26.3385 1841.23
-114.462 -26.3385 1841.23
-114.954 -26.3385 1841.23
-115.556 -26.4198 1846.91
-116.049 -26.4198 1846.91
-116.431 -26.3385 1841.23
-116.923 -26.3385 1841.23
-117.415 -26.3385 1841.23
-117.791 -26.2577 1835.58
-118.282 -26.2577 1835.58
-118.773 -26.2577 1835.58
-119.264 -26.2577 1835.58
-119.755 -26.2577 1835.58
-120.245 -26.2577 1835.58
-120.736 -26.2577 1835.58
-121.227 -26.2577 1835.58
-121.718 -26.2577 1835.58
-122.08 -26.1774 1829.97
-122.569 -26.1774 1829.97
-123.058 -26.1774 1829.97
-123.547 -26.1774 1829.97
-124.037 -26.1774 1829.97
-124.526 -26.1774 1829.97
-125.015 -26.1774 1829.97
-125.505 -26.1774 1829.97
-125.994 -26.1774 1829.97
-126.483 -26.1774 1829.97
-126.972 -26.1774 1829.97
-127.462 -26.1774 1829.97
-127.951 -26.1774 1829.97
-128.44 -26.1774 1829.97
-129.08 -26.2577 1835.58
-129.571 -26.2577 1835.58
-130.061 -26.2577 1835.58
-130.552 -26.2577 1835.58
-131.043 -26.2577 1835.58
-131.376 -26.1774 1829.97
-132.025 -26.2577 1835.58
-132.515 -26.2577 1835.58
-133.006 -26.2577 1835.58
-133.497 -26.2577 1835.58
-133.988 -26.2577 1835.58
-134.479 -26.2577 1835.58
-134.969 -26.2577 1835.58
-135.46 -26.2577 1835.58
-135.951 -26.2577 1835.58
-136.442 -26.2577 1835.58
-136.933 -26.2577 1835.58
-137.423 -26.2577 1835.58
-137.914 -26.2577 1835.58
-138.405 -26.2577 1835.58
-138.896 -26.2577 1835.58
-139.387 -26.2577 1835.58
-139.877 -26.2577 1835.58
-140.368 -26.2577 1835.58
-140.859 -26.2577 1835.58
-141.35 -26.2577 1835.58
-141.84 -26.2577 1835.58
-142.331 -26.2577 1835.58
-142.822 -26.2577 1835.58
-143.313 -26.2577 1835.58
-144 -26.3385 1841.23
-144.294 -26.2577 1835.58
-144.785 -26.2577 1835.58
-145.276 -26.2577 1835.58
-145.767 -26.2577 1835.58
-146.462 -26.3385 1841.23
-146.954 -26.3385 1841.23
-147.446 -26.3385 1841.23
-147.938 -26.3385 1841.23
-148.431 -26.3385 1841.23
-148.923 -26.3385 1841.23
-149.845 -26.5015 1852.63
-150.559 -26.5839 1858.39
-151.5 -26.75 1870
-152.911 -27.0886 1893.67
-153.418 -27.0886 1893.67
-155.355 -27.6129 1930.32
-157.368 -28.1579 1968.42
-160 -28.9189 2021.62
-161.644 -29.3151 2049.32
-165.714 -30.5714 2137.14
-175.118 -33.7008 2355.91
-168.116 -31.0145 2168.12
-184.615 -36.5812 2557.26
-186.207 -36.8966 2579.31
-185.983 -36.5812 2557.26
-188.522 -37.2174 2601.74
-191.15 -37.8761 2647.79
-192.857 -38.2143 2671.43
-191.092 -37.3799 2613.1
-191.304 -37.2174 2601.74
-190.085 -36.5812 2557.26
-174.945 -31.3553 2191.94
-172.811 -30.4626 2129.54
-175.418 -31.1273 2176
-173.286 -30.2473 2114.49
-173.852 -30.2473 2114.49
-174.085 -30.1408 2107.04
-174.648 -30.1408 2107.04
-175.211 -30.1408 2107.04
-175.775 -30.1408 2107.04
-176.338 -30.1408 2107.04
-176.901 -30.1408 2107.04
-177.465 -30.1408 2107.04
-178.028 -30.1408 2107.04
-178.592 -30.1408 2107.04
-179.155 -30.1408 2107.04
-179.718 -30.1408 2107.04
-180.282 -30.1408 2107.04
-180.845 -30.1408 2107.04
-181.408 -30.1408 2107.04
-181.972 -30.1408 2107.04
-182.535 -30.1408 2107.04
-183.099 -30.1408 2107.04
-183.662 -30.1408 2107.04
-184.225 -30.1408 2107.04
-184.789 -30.1408 2107.04
-185.724 -30.2473 2114.49
-186.29 -30.2473 2114.49
-186.855 -30.2473 2114.49
-187.801 -30.3546 2121.99
-189.534 -30.681 2144.8
-190.903 -30.9025 2160.29
-192.291 -31.1273 2176
-193.7 -31.3553 2191.94
-195.985 -31.8216 2224.54
-193.623 -31.0145 2168.12
-200.305 -32.6718 2283.97
-203.268 -33.3074 2328.4
-200.151 -32.3019 2258.11
-209.032 -34.5161 2412.9
-210.732 -34.7967 2432.52
-240 -42.3762 2962.38
-239.216 -41.9608 2933.33
-217.143 -35.9664 2514.29
-218.983 -36.2712 2535.59
-204.377 -32.3019 2258.11
-222.759 -36.8966 2579.31
-202.804 -31.5867 2208.12
-202.491 -31.3553 2191.94
45.9206 -30.3249 2160.29
45.343 -30.3249 2160.29
44.7653 -30.3249 2160.29
44.1877 -30.3249 2160.29
43.6101 -30.3249 2160.29
43.0325 -30.3249 2160.29
42.4549 -30.3249 2160.29
41.8773 -30.3249 2160.29
41.2996 -30.3249 2160.29
40.722 -30.3249 2160.29
39.7122 -30.2158 2152.52
39.1367 -30.2158 2152.52
38.5612 -30.2158 2152.52
37.9856 -30.2158 2152.52
37.4101 -30.2158 2152.52
36.8345 -30.2158 2152.52
36.259 -30.2158 2152.52
35.6835 -30.2158 2152.52
35.1079 -30.2158 2152.52
34.5324 -30.2158 2152.52
33.9568 -30.2158 2152.52
33.3813 -30.2158 2152.52
32.4014 -30.1075 2144.8
31.828 -30.1075 2144.8
31.6547 -30.2158 2152.52
30.681 -30.1075 2144.8
30.1075 -30.1075 2144.8
29.5341 -30.1075 2144.8
28.9606 -30.1075 2144.8
28 -30 2137.14
27.0463 -29.8932 2129.54
26.0993 -29.7872 2121.99
24.7887 -29.5775 2107.04
24.2254 -29.5775 2107.04
22.9371 -29.3706 2092.31
21.6667 -29.1667 2077.78
20.4138 -28.9655 2063.45
18.1695 -28.4746 2028.47
13.5065 -27.2727 1942.86
12.6861 -27.1845 1936.57
12.4675 -27.2727 1942.86
12.549 -27.451 1955.56
12.3279 -27.541 1961.97
12.1053 -27.6316 1968.42
12.1854 -27.8146 1981.46
11.9601 -27.907 1988.04
12.0401 -28.0936 2001.34
12.4324 -28.3784 2021.62
14.4444 -29.1667 2077.78
12.2867 -28.6689 2042.32
13.6585 -29.2683 2085.02
14.417 -29.682 2114.49
13.193 -29.4737 2099.65
13.2862 -29.682 2114.49
13.0496 -29.7872 2121.99
12.4823 -29.7872 2121.99
11.9149 -29.7872 2121.99
11.3475 -29.7872 2121.99
10.7801 -29.7872 2121.99
10.2128 -29.7872 2121.99
9.64539 -29.7872 2121.99
9.07801 -29.7872 2121.99
8.51064 -29.7872 2121.99
7.94326 -29.7872 2121.99
7.37589 -29.7872 2121.99
6.80851 -29.7872 2121.99
5.9364 -29.682 2114.49
5.37102 -29.682 2114.49
4.80565 -29.682 2114.49
3.94366 -29.5775 2107.04
3.08772 -29.4737 2099.65
1.95122 -29.2683 2085.02
0.274914 -28.866 2056.36
-3.17881 -27.8146 1981.46
-4.45902 -27.541 1961.97
-3.98671 -27.907 1988.04
-8.10127 -26.5823 1893.67
-10.3704 -25.9259 1846.91
-11.4985 -25.6881 1829.97
-12.4012 -25.5319 1818.84
-12.6829 -25.6098 1824.39
-13.9759 -25.3012 1802.41
-15.4303 -24.9258 1775.67
-17.5723 -24.2775 1729.48
-15.2266 -25.3776 1807.85
-10 -27.6316 1968.42
-10.5263 -27.6316 1968.42
-9.42761 -28.2828 2014.81
-9.01024 -28.6689 2042.32
-9.31507 -28.7671 2049.32
-11.0438 -28.2828 2014.81
-11.1186 -28.4746 2028.47
-11.4286 -28.5714 2035.37
-12.8859 -28.1879 2008.05
-14.0864 -27.907 1988.04
-15.0495 -27.7228 1974.92
-15.5776 -27.7228 1974.92
-16.3158 -27.6316 1968.42
-16.8421 -27.6316 1968.42
-17.7778 -27.451 1955.56
-18.3007 -27.451 1955.56
-20.1917 -26.8371 1911.82
-20.7029 -26.8371 1911.82
-21.2141 -26.8371 1911.82
-21.7252 -26.8371 1911.82
-22.0513 -26.9231 1917.95
-22.7476 -26.8371 1911.82
-23.0769 -26.9231 1917.95
-23.4084 -27.0096 1924.12
-23.7419 -27.0968 1930.32
-24.0777 -27.1845 1936.57
-24.4156 -27.2727 1942.86
-24.9351 -27.2727 1942.86
-24.3709 -27.8146 1981.46
-24.1611 -28.1879 2008.05
-24.5118 -28.2828 2014.81
-25.0505 -28.2828 2014.81
-25.5892 -28.2828 2014.81
-25.9459 -28.3784 2021.62
-26.4865 -28.3784 2021.62
-27.027 -28.3784 2021.62
-27.5676 -28.3784 2021.62
-28.1081 -28.3784 2021.62
-28.6486 -28.3784 2021.62
-29.1892 -28.3784 2021.62
-29.7297 -28.3784 2021.62
-30.1017 -28.4746 2028.47
-30.6441 -28.4746 2028.47
-31.1864 -28.4746 2028.47
-31.7288 -28.4746 2028.47
-32.2712 -28.4746 2028.47
-32.6531 -28.5714 2035.37
-33.3559 -28.4746 2028.47
-33.7415 -28.5714 2035.37
-34.2857 -28.5714 2035.37
-34.6758 -28.6689 2042.32
-35.2218 -28.6689 2042.32
-35.7679 -28.6689 2042.32
-37.4751 -27.907 1988.04
-37.2973 -28.3784 2021.62
-37.551 -28.5714 2035.37
-39.2053 -27.8146 1981.46
-40.5195 -27.2727 1942.86
-41.9048 -26.6667 1899.68
-42.884 -26.3323 1875.86
-43.6137 -26.1682 1864.17
-44.4444 -25.9259 1846.91
-45.3659 -25.6098 1824.39
-46.2651 -25.3012 1802.41
-46.135 -25.7669 1835.58
-45.7862 -26.4151 1881.76
-46.395 -26.3323 1875.86
-46.3694 -26.7516 1905.73
-47.2956 -26.4151 1881.76
-44.6897 -28.9655 2063.45
-45.2414 -28.9655 2063.45
-45.7931 -28.9655 2063.45
-46.3448 -28.9655 2063.45
-47.0103 -28.866 2056.36
-47.5601 -28.866 2056.36
-48 -28.9655 2063.45
-48.5517 -28.9655 2063.45
-49.1034 -28.9655 2063.45
-49.5502 -29.0657 2070.59
-50.1038 -29.0657 2070.59
-50.8591 -28.866 2056.36
-51.3103 -28.9655 2063.45
-51.9588 -28.866 2056.36
-52.6962 -28.6689 2042.32
-53.1507 -28.7671 2049.32
-54.2282 -28.1879 2008.05
-54.3345 -28.6689 2042.32
-55.7895 -27.6316 1968.42
-56.5472 -27.3616 1949.19
-57.7918 -26.4984 1887.7
-58.6335 -26.087 1858.39
-58.8013 -26.4984 1887.7
-59.5639 -26.1682 1864.17
-60 -26.25 1870
-60.6211 -26.087 1858.39
-61.118 -26.087 1858.39
-61.5 -26.25 1870
-61.8868 -26.4151 1881.76
-62.6087 -26.087 1858.39
-63.053 -26.1682 1864.17
-63.2911 -26.5823 1893.67
-63.7975 -26.5823 1893.67
-63.5216 -27.907 1988.04
-64.0532 -27.907 1988.04
-64.5847 -27.907 1988.04
-65.1163 -27.907 1988.04
-65.6478 -27.907 1988.04
-66.1794 -27.907 1988.04
-66.711 -27.907 1988.04
-67.2425 -27.907 1988.04
-67.8146 -27.8146 1981.46
-68.3444 -27.8146 1981.46
-68.8742 -27.8146 1981.46
-69.404 -27.8146 1981.46
-69.9338 -27.8146 1981.46
-70.4636 -27.8146 1981.46
-70.9934 -27.8146 1981.46
-71.5512 -27.7228 1974.92
-72.0792 -27.7228 1974.92
-72.6073 -27.7228 1974.92
-73.1353 -27.7228 1974.92
-73.6634 -27.7228 1974.92
-74.1914 -27.7228 1974.92
-74.7195 -27.7228 1974.92
-75.2475 -27.7228 1974.92
-75.7756 -27.7228 1974.92
-76.3036 -27.7228 1974.92
-76.8317 -27.7228 1974.92
-77.3597 -27.7228 1974.92
-77.8878 -27.7228 1974.92
-78.4158 -27.7228 1974.92
-78.9439 -27.7228 1974.92
-79.4719 -27.7228 1974.92
-80 -27.7228 1974.92
-80.5281 -27.7228 1974.92
-81.0561 -27.7228 1974.92
-81.5842 -27.7228 1974.92
-82.1122 -27.7228 1974.92
-82.6403 -27.7228 1974.92
-83.1683 -27.7228 1974.92
-83.6964 -27.7228 1974.92
-84.2244 -27.7228 1974.92
-84.7525 -27.7228 1974.92
-85.2805 -27.7228 1974.92
-85.8086 -27.7228 1974.92
-86.3366 -27.7228 1974.92
-86.8647 -27.7228 1974.92
-87.3927 -27.7228 1974.92
-87.9208 -27.7228 1974.92
-88.4488 -27.7228 1974.92
-88.9769 -27.7228 1974.92
-89.505 -27.7228 1974.92
-90.0662 -27.8146 1981.46
-90.596 -27.8146 1981.46
-91.1258 -27.8146 1981.46
-91.6556 -27.8146 1981.46
-92.1854 -27.8146 1981.46
-92.7152 -27.8146 1981.46
-93.245 -27.8146 1981.46
-93.7748 -27.8146 1981.46
-94.3522 -27.907 1988.04
-94.8837 -27.907 1988.04
-95.4153 -27.907 1988.04
-96.0535 -28.0936 2001.34
-96.7003 -28.2828 2014.81
-97.1237 -28.0936 2001.34
-97.6589 -28.0936 2001.34
-98.1333 -28 1994.67
-98.6047 -27.907 1988.04
-99.0728 -27.8146 1981.46
-99.4737 -27.6316 1968.42
-99.9344 -27.541 1961.97
-100.326 -27.3616 1949.19
-100.645 -27.0968 1930.32
-100.958 -26.8371 1911.82
-101.333 -26.6667 1899.68
-101.981 -26.8371 1911.82
-102.138 -26.4151 1881.76
-102.571 -26.3323 1875.86
-103 -26.25 1870
-103.5 -26.25 1870
-103.925 -26.1682 1864.17
-104.424 -26.1682 1864.17
-104.845 -26.087 1858.39
-105.342 -26.087 1858.39
-105.839 -26.087 1858.39
-106.335 -26.087 1858.39
-106.832 -26.087 1858.39
-107.329 -26.087 1858.39
-107.74 -26.0062 1852.63
-108.235 -26.0062 1852.63
-108.731 -26.0062 1852.63
-109.226 -26.0062 1852.63
-109.721 -26.0062 1852.63
-110.123 -25.9259 1846.91
-110.617 -25.9259 1846.91
-111.111 -25.9259 1846.91
-111.605 -25.9259 1846.91
-112.099 -25.9259 1846.91
-112.593 -25.9259 1846.91
-112.985 -25.8462 1841.23
-113.477 -25.8462 1841.23
-113.969 -25.8462 1841.23
-114.462 -25.8462 1841.23
-114.954 -25.8462 1841.23
-115.446 -25.8462 1841.23
-115.938 -25.8462 1841.23
-116.431 -25.8462 1841.23
-116.923 -25.8462 1841.23
-117.301 -25.7669 1835.58
-117.791 -25.7669 1835.58
-118.282 -25.7669 1835.58
-118.773 -25.7669 1835.58
-119.264 -25.7669 1835.58
-119.755 -25.7669 1835.58
-120.245 -25.7669 1835.58
-120.736 -25.7669 1835.58
-121.227 -25.7669 1835.58
-121.59 -25.6881 1829.97
-122.08 -25.6881 1829.97
-122.569 -25.6881 1829.97
-123.058 -25.6881 1829.97
-123.547 -25.6881 1829.97
-123.902 -25.6098 1824.39
-124.39 -25.6098 1824.39
-125.015 -25.6881 1829.97
-125.505 -25.6881 1829.97
-125.994 -25.6881 1829.97
-126.483 -25.6881 1829.97
-126.972 -25.6881 1829.97
-127.462 -25.6881 1829.97
-127.951 -25.6881 1829.97
-128.44 -25.6881 1829.97
-128.93 -25.6881 1829.97
-129.419 -25.6881 1829.97
-130.061 -25.7669 1835.58
-130.398 -25.6881 1829.97
-130.887 -25.6881 1829.97
-131.534 -25.7669 1835.58
-131.865 -25.6881 1829.97
-132.515 -25.7669 1835.58
-133.006 -25.7669 1835.58
-133.497 -25.7669 1835.58
-133.988 -25.7669 1835.58
-134.479 -25.7669 1835.58
-134.969 -25.7669 1835.58
-135.46 -25.7669 1835.58
-135.951 -25.7669 1835.58
-136.442 -25.7669 1835.58
-136.933 -25.7669 1835.58
-137.423 -25.7669 1835.58
-137.914 -25.7669 1835.58
-138.405 -25.7669 1835.58
-138.896 -25.7669 1835.58
-139.387 -25.7669 1835.58
-139.877 -25.7669 1835.58
-140.368 -25.7669 1835.58
-140.859 -25.7669 1835.58
-141.35 -25.7669 1835.58
-141.84 -25.7669 1835.58
-142.331 -25.7669 1835.58
-142.822 -25.7669 1835.58
-143.313 -25.7669 1835.58
-143.804 -25.7669 1835.58
-144.294 -25.7669 1835.58
-144.785 -25.7669 1835.58
-145.477 -25.8462 1841.23
-145.767 -25.7669 1835.58
-146.462 -25.8462 1841.23
-146.748 -25.7669 1835.58
-147.239 -25.7669 1835.58
-147.938 -25.8462 1841.23
-148.431 -25.8462 1841.23
-148.923 -25.8462 1841.23
-149.63 -25.9259 1846.91
-150.559 -26.087 1858.39
-151.277 -26.1682 1864.17
-152 -26.25 1870
-152.956 -26.4151 1881.76
-154.633 -26.8371 1911.82
-156.117 -27.1845 1936.57
-157.895 -27.6316 1968.42
-160 -28.1879 2008.05
-162.474 -28.866 2056.36
-164.476 -29.3706 2092.31
-167.168 -30.1075 2144.8
-176.378 -33.0709 2355.91
-180.571 -34.2857 2442.45
-181.639 -34.4262 2452.46
-185.763 -35.5932 2535.59
-186.441 -35.5932 2535.59
-184.463 -34.7107 2472.73
-190.609 -36.5217 2601.74
-190.823 -36.3636 2590.48
-184.715 -34.1463 2432.52
-189.367 -35.443 2524.89
-173.143 -30 2137.14
-173.05 -29.7872 2121.99
-173.286 -29.682 2114.49
-173.852 -29.682 2114.49
-174.085 -29.5775 2107.04
-174.648 -29.5775 2107.04
-175.211 -29.5775 2107.04
-175.775 -29.5775 2107.04
-176.338 -29.5775 2107.04
-176.901 -29.5775 2107.04
-177.465 -29.5775 2107.04
-178.028 -29.5775 2107.04
-178.592 -29.5775 2107.04
-179.155 -29.5775 2107.04
-179.718 -29.5775 2107.04
-180.282 -29.5775 2107.04
-180.845 -29.5775 2107.04
-181.408 -29.5775 2107.04
-181.972 -29.5775 2107.04
-182.535 -29.5775 2107.04
-183.099 -29.5775 2107.04
-183.662 -29.5775 2107.04
-184.225 -29.5775 2107.04
-184.789 -29.5775 2107.04
-185.352 -29.5775 2107.04
-186.667 -29.7872 2121.99
-187.616 -29.8932 2129.54
-188.185 -29.8932 2129.54
-188.754 -29.8932 2129.54
-190.903 -30.3249 2160.29
-190.286 -30 2137.14
-194.963 -31.1111 2216.3
-192.635 -30.3249 2160.29
-196.58 -31.2268 2224.54
-201.699 -32.4324 2310.42
-203.75 -32.8125 2337.5
-207.36 -33.6 2393.6
-211.148 -34.4262 2452.46
-236.117 -40.7767 2904.85
-237.659 -40.9756 2919.02
-240 -41.3793 2947.78
-228.364 -38.1818 2720
-224.493 -37.0044 2636.12
-212.369 -33.7349 2403.21
-220.936 -35.7447 2546.38
-225.328 -36.6812 2613.1
-202.941 -30.8824 2200
45.9206 -29.7473 2160.29
45.343 -29.7473 2160.29
44.7653 -29.7473 2160.29
44.1877 -29.7473 2160.29
43.6101 -29.7473 2160.29
42.5899 -29.6403 2152.52
42.0144 -29.6403 2152.52
41.4388 -29.6403 2152.52
40.8633 -29.6403 2152.52
40.2878 -29.6403 2152.52
39.7122 -29.6403 2152.52
39.1367 -29.6403 2152.52
38.5612 -29.6403 2152.52
37.9856 -29.6403 2152.52
37.4101 -29.6403 2152.52
36.8345 -29.6403 2152.52
35.8423 -29.5341 2144.8
35.6835 -29.6403 2152.52
35.1079 -29.6403 2152.52
34.5324 -29.6403 2152.52
33.5484 -29.5341 2144.8
32.9749 -29.5341 2144.8
32.4014 -29.5341 2144.8
31.4286 -29.4286 2137.14
31.2545 -29.5341 2144.8
30.681 -29.5341 2144.8
29.7143 -29.4286 2137.14
29.5341 -29.5341 2144.8
28.9606 -29.5341 2144.8
27.6157 -29.3238 2129.54
27.0463 -29.3238 2129.54
26.0993 -29.2199 2121.99
25.159 -29.1166 2114.49
24.2254 -29.0141 2107.04
22.9371 -28.8112 2092.31
21.6667 -28.6111 2077.78
20.0687 -28.3162 2056.36
18.1695 -27.9322 2028.47
16.9697 -27.7441 2014.81
12.6861 -26.6667 1936.57
12.4675 -26.7532 1942.86
12.2476 -26.8404 1949.19
12.3279 -27.0164 1961.97
12.1053 -27.1053 1968.42
11.8812 -27.1947 1974.92
11.6556 -27.2848 1981.46
12.349 -27.651 2008.05
11.8121 -27.651 2008.05
14.1176 -28.5121 2070.59
11.661 -27.9322 2028.47
11.7406 -28.1229 2042.32
12.7778 -28.6111 2077.78
13.8516 -29.1166 2114.49
13.2862 -29.1166 2114.49
13.0496 -29.2199 2121.99
12.4823 -29.2199 2121.99
11.9149 -29.2199 2121.99
11.3475 -29.2199 2121.99
10.7801 -29.2199 2121.99
10.2128 -29.2199 2121.99
9.64539 -29.2199 2121.99
9.07801 -29.2199 2121.99
8.51064 -29.2199 2121.99
7.94326 -29.2199 2121.99
7.37589 -29.2199 2121.99
6.50177 -29.1166 2114.49
5.9364 -29.1166 2114.49
5.37102 -29.1166 2114.49
4.80565 -29.1166 2114.49
4.24028 -29.1166 2114.49
3.08772 -28.9123 2099.65
2.23776 -28.8112 2092.31
1.11111 -28.6111 2077.78
-1.88552 -27.7441 2014.81
-3.2 -27.4667 1994.67
-6.66667 -26.4103 1917.95
-7.87302 -26.1587 1899.68
-11.4286 -25.0456 1818.84
-12.7327 -24.7447 1797
-13.6119 -24.597 1786.27
-13.8922 -24.6707 1791.62
-16.0933 -24.0233 1744.61
-17.8286 -23.5429 1709.71
-18.2857 -23.5429 1709.71
-13.2087 -25.6698 1864.17
-15.122 -25.122 1824.39
-9.12752 -27.651 2008.05
-10.1333 -27.4667 1994.67
-9.96633 -27.7441 2014.81
-9.55631 -28.1229 2042.32
-11.7333 -27.4667 1994.67
-10.8844 -28.0272 2035.37
-11.8919 -27.8378 2021.62
-13.3333 -27.4667 1994.67
-14.3046 -27.2848 1981.46
-15.0495 -27.1947 1974.92
-15.7895 -27.1053 1968.42
-16.3158 -27.1053 1968.42
-17.0492 -27.0164 1961.97
-17.7778 -26.9281 1955.56
-18.5016 -26.8404 1949.19
-19.6129 -26.5806 1930.32
-20.7029 -26.3259 1911.82
-21.2141 -26.3259 1911.82
-21.7252 -26.3259 1911.82
-22.2364 -26.3259 1911.82
-22.5641 -26.4103 1917.95
-22.8939 -26.4952 1924.12
-23.4084 -26.4952 1924.12
-23.9228 -26.4952 1924.12
-24.2581 -26.5806 1930.32
-24.5955 -26.6667 1936.57
-25.1133 -26.6667 1936.57
-25.4545 -26.7532 1942.86
-25.2632 -27.1053 1968.42
-24.3243 -27.8378 2021.62
-25.0505 -27.7441 2014.81
-25.4054 -27.8378 2021.62
-25.9459 -27.8378 2021.62
-26.4865 -27.8378 2021.62
-27.027 -27.8378 2021.62
-27.5676 -27.8378 2021.62
-28.1081 -27.8378 2021.62
-28.6486 -27.8378 2021.62
-29.1892 -27.8378 2021.62
-29.7297 -27.8378 2021.62
-30.2703 -27.8378 2021.62
-30.6441 -27.9322 2028.47
-31.1864 -27.9322 2028.47
-31.7288 -27.9322 2028.47
-32.2712 -27.9322 2028.47
-32.8136 -27.9322 2028.47
-33.1973 -28.0272 2035.37
-33.7415 -28.0272 2035.37
-34.4407 -27.9322 2028.47
-34.6758 -28.1229 2042.32
-35.0685 -28.2192 2049.32
-35.7679 -28.1229 2042.32
-37.6159 -27.2848 1981.46
-39.4872 -26.4103 1917.95
-39.6117 -26.6667 1936.57
-40.5128 -26.4103 1917.95
-41.519 -26.0759 1893.67
-43.0769 -25.3538 1841.23
-43.3437 -25.5108 1852.63
-44.0615 -25.3538 1841.23
-45.4054 -24.7447 1797
-45.8859 -24.7447 1797
-46.3664 -24.7447 1797
-46.5455 -24.9697 1813.33
-46.1059 -25.6698 1864.17
-46.5 -25.75 1870
-46.7925 -25.9119 1881.76
-47.2956 -25.9119 1881.76
-45.0512 -28.1229 2042.32
-45.4795 -28.2192 2049.32
-46.0274 -28.2192 2049.32
-46.4605 -28.3162 2056.36
-47.0103 -28.3162 2056.36
-47.5601 -28.3162 2056.36
-48 -28.4138 2063.45
-48.5517 -28.4138 2063.45
-46.5672 -30.7463 2232.84
-49.6552 -28.4138 2063.45
-48.1181 -30.4059 2208.12
-49.7143 -29.4286 2137.14
-51.3103 -28.4138 2063.45
-48.125 -32.1875 2337.5
-52.028 -28.8112 2092.31
-52.6829 -28.7108 2085.02
-50.687 -31.4504 2283.97
-54.4218 -28.0272 2035.37
-56.0261 -26.8404 1949.19
-56.6234 -26.7532 1942.86
-57.7215 -26.0759 1893.67
-58.0892 -26.242 1905.73
-58.8013 -25.9937 1887.7
-59.6273 -25.5901 1858.39
-60.1858 -25.5108 1852.63
-60.6211 -25.5901 1858.39
-61 -25.75 1870
-61.6149 -25.5901 1858.39
-62.0561 -25.6698 1864.17
-62.4451 -25.8307 1875.86
-63 -25.75 1870
-63.3962 -25.9119 1881.76
-63.9498 -25.8307 1875.86
-63.9482 -26.6667 1936.57
-64.0532 -27.3754 1988.04
-64.5847 -27.3754 1988.04
-65.1163 -27.3754 1988.04
-65.6478 -27.3754 1988.04
-66.1794 -27.3754 1988.04
-66.711 -27.3754 1988.04
-67.2425 -27.3754 1988.04
-67.8146 -27.2848 1981.46
-68.3444 -27.2848 1981.46
-68.8742 -27.2848 1981.46
-69.404 -27.2848 1981.46
-69.9338 -27.2848 1981.46
-70.495 -27.1947 1974.92
