-96.3855 54.2169 1802.41
-96.8675 54.2169 1802.41
-97.2973 54.0541 1797
-97.7778 54.0541 1797
-98.2583 54.0541 1797
-98.7387 54.0541 1797
-99.2192 54.0541 1797
-99.6997 54.0541 1797
-100.18 54.0541 1797
-100.661 54.0541 1797
-101.141 54.0541 1797
-101.622 54.0541 1797
-102.102 54.0541 1797
-102.583 54.0541 1797
-103.063 54.0541 1797
-103.544 54.0541 1797
-104.024 54.0541 1797
-104.505 54.0541 1797
-104.985 54.0541 1797
-105.465 54.0541 1797
-105.946 54.0541 1797
-106.426 54.0541 1797
-106.907 54.0541 1797
-107.387 54.0541 1797
-107.868 54.0541 1797
-108.348 54.0541 1797
-108.829 54.0541 1797
-109.222 53.8922 1791.62
-109.612 53.7313 1786.27
-109.735 53.0973 1765.19
-110.118 52.9412 1760
-110.588 52.9412 1760
-110.968 52.7859 1754.84
-111.437 52.7859 1754.84
-111.72 52.4781 1744.61
-112.187 52.4781 1744.61
-112.653 52.4781 1744.61
-113.023 52.3256 1739.53
-113.199 51.8732 1724.5
-113.467 51.5759 1714.61
-113.829 51.4286 1709.71
-114.286 51.4286 1709.71
-114.743 51.4286 1709.71
-115.2 51.4286 1709.71
-115.657 51.4286 1709.71
-116.114 51.4286 1709.71
-116.571 51.4286 1709.71
-116.923 51.2821 1704.84
-117.379 51.2821 1704.84
-117.727 51.1364 1700
-118.182 51.1364 1700
-118.636 51.1364 1700
-119.091 51.1364 1700
-119.545 51.1364 1700
-120 51.1364 1700
-120.455 51.1364 1700
-120.909 51.1364 1700
-121.364 51.1364 1700
-121.818 51.1364 1700
-122.273 51.1364 1700
-122.727 51.1364 1700
-123.305 51.2821 1704.84
-123.761 51.2821 1704.84
-124.217 51.2821 1704.84
-124.672 51.2821 1704.84
-125.128 51.2821 1704.84
-125.584 51.2821 1704.84
-126.04 51.2821 1704.84
-126.496 51.2821 1704.84
-126.952 51.2821 1704.84
-127.407 51.2821 1704.84
-128 51.4286 1709.71
-128.457 51.4286 1709.71
-128.914 51.4286 1709.71
-129.371 51.4286 1709.71
-129.829 51.4286 1709.71
-130.286 51.4286 1709.71
-130.743 51.4286 1709.71
-131.2 51.4286 1709.71
-131.657 51.4286 1709.71
-132.114 51.4286 1709.71
-132.571 51.4286 1709.71
-133.029 51.4286 1709.71
-133.486 51.4286 1709.71
-133.943 51.4286 1709.71
-134.4 51.4286 1709.71
-134.857 51.4286 1709.71
-135.314 51.4286 1709.71
-135.931 51.5759 1714.61
-136.879 52.0231 1729.48
-137.674 52.3256 1739.53
-138.309 52.4781 1744.61
-138.605 52.3256 1739.53
-138.223 51.5759 1714.61
-135.956 49.1803 1634.97
-136.087 48.913 1626.09
-136.216 48.6486 1617.3
-136.496 48.5175 1612.94
-136.927 48.5175 1612.94
-137.204 48.3871 1608.6
-137.634 48.3871 1608.6
-138.065 48.3871 1608.6
-138.495 48.3871 1608.6
-140.889 50 1662.22
-143.266 51.5759 1714.61
-144.651 52.3256 1739.53
-145.689 52.7859 1754.84
-145.773 52.4781 1744.61
-145.287 51.7241 1719.54
-144.816 50.9915 1695.18
-144.538 50.4202 1676.19
-144.804 50.2793 1671.51
-145.434 50.4202 1676.19
-146.629 50.9915 1695.18
-148.439 52.0231 1729.48
-150.324 53.0973 1765.19
-151.006 53.2544 1770.41
-153.659 54.878 1824.39
-160 59.2105 1968.42
-183.291 75.9494 2524.89
-199.612 87.3786 2904.85
-197.183 84.507 2809.39
-181.7 72.8745 2422.67
-161.286 57.8778 1924.12
-152.068 50.9915 1695.18
-150.137 49.3151 1639.45
-150.575 49.3151 1639.45
-151.014 49.3151 1639.45
-151.452 49.3151 1639.45
-151.89 49.3151 1639.45
-152.329 49.3151 1639.45
-155.67 51.2821 1704.84
-162.215 55.3846 1841.23
-191.074 74.3802 2472.73
-208.762 85.7143 2849.52
-163.275 52.6316 1749.71
-163.014 52.1739 1734.49
-163.237 52.0231 1729.48
-163.218 51.7241 1719.54
-162.26 50.8475 1690.4
-160.884 49.7238 1653.04
-160.218 49.0463 1630.52
-160.435 48.913 1626.09
-160.87 48.913 1626.09
-161.304 48.913 1626.09
-161.739 48.913 1626.09
-162.174 48.913 1626.09
-162.609 48.913 1626.09
-163.043 48.913 1626.09
-163.478 48.913 1626.09
-164.142 49.0463 1630.52
-164.578 49.0463 1630.52
-165.246 49.1803 1634.97
-168.338 50.7042 1685.63
-179.119 56.6038 1881.76
-201.846 69.2308 2301.54
-228.093 83.7209 2783.26
-230.986 84.507 2809.39
-214.108 74.6888 2482.99
-188.629 60.2007 2001.34
-178.313 54.2169 1802.41
-174.253 51.7241 1719.54
-174.171 51.4286 1709.71
-174.091 51.1364 1700
-173.483 50.5618 1680.9
-173.148 50.1393 1666.85
-173.593 50.1393 1666.85
-174.039 50.1393 1666.85
-174.485 50.1393 1666.85
-175.196 50.2793 1671.51
-175.642 50.2793 1671.51
-176.359 50.4202 1676.19
-176.807 50.4202 1676.19
-177.255 50.4202 1676.19
-180.519 51.8732 1724.5
-180.98 51.8732 1724.5
23.7209 52.7907 1739.53
23.2558 52.7907 1739.53
22.7907 52.7907 1739.53
22.6239 52.9446 1744.61
22.1574 52.9446 1744.61
21.691 52.9446 1744.61
21.2245 52.9446 1744.61
20.758 52.9446 1744.61
20.5848 53.0994 1749.71
20.117 53.0994 1749.71
19.6491 53.0994 1749.71
19.4721 53.2551 1754.84
19.0029 53.2551 1754.84
18.8235 53.4118 1760
18.3529 53.4118 1760
17.8824 53.4118 1760
17.4118 53.4118 1760
16.9412 53.4118 1760
16.7552 53.5693 1765.19
16.2832 53.5693 1765.19
15.8112 53.5693 1765.19
15.3392 53.5693 1765.19
14.8673 53.5693 1765.19
14.6746 53.7278 1770.41
14.2012 53.7278 1770.41
13.7278 53.7278 1770.41
13.2544 53.7278 1770.41
12.7811 53.7278 1770.41
12.5816 53.8872 1775.67
12.1068 53.8872 1775.67
11.632 53.8872 1775.67
11.1573 53.8872 1775.67
10.6825 53.8872 1775.67
10.4762 54.0476 1780.95
10 54.0476 1780.95
9.52381 54.0476 1780.95
9.04762 54.0476 1780.95
8.57143 54.0476 1780.95
8.35821 54.209 1786.27
7.8806 54.209 1786.27
7.40299 54.209 1786.27
7.18563 54.3713 1791.62
6.70659 54.3713 1791.62
6.22754 54.3713 1791.62
5.7485 54.3713 1791.62
5.52553 54.5345 1797
5.04505 54.5345 1797
4.56456 54.5345 1797
4.33735 54.6988 1802.41
3.85542 54.6988 1802.41
3.37349 54.6988 1802.41
2.89157 54.6988 1802.41
2.40964 54.6988 1802.41
2.17523 54.864 1807.85
1.69184 54.864 1807.85
1.20846 54.864 1807.85
0.725076 54.864 1807.85
0.241692 54.864 1807.85
-0 55.0303 1813.33
-0.484848 55.0303 1813.33
-0.969697 55.0303 1813.33
-1.45455 55.0303 1813.33
-1.93939 55.0303 1813.33
-2.18845 55.1976 1818.84
-2.67477 55.1976 1818.84
-3.16109 55.1976 1818.84
-3.64742 55.1976 1818.84
-4.13374 55.1976 1818.84
-4.39024 55.3659 1824.39
-4.87805 55.3659 1824.39
-5.36585 55.3659 1824.39
-5.62691 55.5352 1829.97
-6.11621 55.5352 1829.97
-6.6055 55.5352 1829.97
-7.0948 55.5352 1829.97
-7.36196 55.7055 1835.58
-7.85276 55.7055 1835.58
-8.34356 55.7055 1835.58
-8.83436 55.7055 1835.58
-9.54128 55.5352 1829.97
-10.4559 55.1976 1818.84
-11.7718 54.5345 1797
-12.8571 54.0476 1780.95
-13.3333 54.0476 1780.95
-13.8095 54.0476 1780.95
-14.2857 54.0476 1780.95
-14.7619 54.0476 1780.95
-15.0448 54.209 1786.27
-15.5224 54.209 1786.27
-16 54.209 1786.27
-16.4776 54.209 1786.27
-16.9552 54.209 1786.27
-17.2455 54.3713 1791.62
-17.7246 54.3713 1791.62
-18.2036 54.3713 1791.62
-18.6826 54.3713 1791.62
-18.979 54.5345 1797
-19.4595 54.5345 1797
-19.759 54.6988 1802.41
-20.241 54.6988 1802.41
-20.7229 54.6988 1802.41
-21.2048 54.6988 1802.41
-21.6867 54.6988 1802.41
-22.1687 54.6988 1802.41
-22.6506 54.6988 1802.41
-23.1325 54.6988 1802.41
-23.6145 54.6988 1802.41
-24.0964 54.6988 1802.41
-24.5783 54.6988 1802.41
-25.0602 54.6988 1802.41
-25.5422 54.6988 1802.41
-26.0241 54.6988 1802.41
-26.506 54.6988 1802.41
-26.988 54.6988 1802.41
-27.4699 54.6988 1802.41
-27.9518 54.6988 1802.41
-28.4337 54.6988 1802.41
-28.9157 54.6988 1802.41
-29.3976 54.6988 1802.41
-30.03 54.5345 1797
-30.3614 54.6988 1802.41
-30.8434 54.6988 1802.41
-31.4715 54.5345 1797
-31.952 54.5345 1797
-32.2892 54.6988 1802.41
-32.7711 54.6988 1802.41
-33.253 54.6988 1802.41
-33.7349 54.6988 1802.41
-34.2169 54.6988 1802.41
-34.5619 54.864 1807.85
-34.9091 55.0303 1813.33
-35.2584 55.1976 1818.84
-35.474 55.5352 1829.97
-35.9633 55.5352 1829.97
-36.4526 55.5352 1829.97
-36.9419 55.5352 1829.97
-37.4312 55.5352 1829.97
-37.7914 55.7055 1835.58
-38.2822 55.7055 1835.58
-38.773 55.7055 1835.58
-39.2638 55.7055 1835.58
-39.6308 55.8769 1841.23
-40.1231 55.8769 1841.23
-40.4938 56.0494 1846.91
-40.9877 56.0494 1846.91
-41.4815 56.0494 1846.91
-41.8576 56.2229 1852.63
-42.3529 56.2229 1852.63
-42.8483 56.2229 1852.63
-43.3437 56.2229 1852.63
-43.9506 56.0494 1846.91
-44.5538 55.8769 1841.23
-45.0462 55.8769 1841.23
-45.5385 55.8769 1841.23
-46.135 55.7055 1835.58
-46.6258 55.7055 1835.58
-47.3171 55.3659 1824.39
-47.8049 55.3659 1824.39
-48.2927 55.3659 1824.39
-48.7805 55.3659 1824.39
-49.2683 55.3659 1824.39
-49.7561 55.3659 1824.39
-50.3343 55.1976 1818.84
-50.8207 55.1976 1818.84
-51.307 55.1976 1818.84
-51.7933 55.1976 1818.84
-52.3636 55.0303 1813.33
-52.8485 55.0303 1813.33
-53.3333 55.0303 1813.33
-53.8182 55.0303 1813.33
-54.303 55.0303 1813.33
-54.7879 55.0303 1813.33
-55.2727 55.0303 1813.33
-55.7576 55.0303 1813.33
-56.3142 54.864 1807.85
-56.7976 54.864 1807.85
-57.281 54.864 1807.85
-57.7644 54.864 1807.85
-58.2477 54.864 1807.85
-58.7311 54.864 1807.85
-59.2145 54.864 1807.85
-59.6979 54.864 1807.85
-60.1813 54.864 1807.85
-60.6647 54.864 1807.85
-61.148 54.864 1807.85
-61.6314 54.864 1807.85
-62.1148 54.864 1807.85
-62.5982 54.864 1807.85
-63.0816 54.864 1807.85
-63.565 54.864 1807.85
-64.0483 54.864 1807.85
-64.5317 54.864 1807.85
-65.0151 54.864 1807.85
-65.4985 54.864 1807.85
-65.9819 54.864 1807.85
-66.4653 54.864 1807.85
-66.9486 54.864 1807.85
-67.432 54.864 1807.85
-67.9154 54.864 1807.85
-68.3988 54.864 1807.85
-68.9157 54.6988 1802.41
-69.3976 54.6988 1802.41
-69.8795 54.6988 1802.41
-70.3614 54.6988 1802.41
-70.8434 54.6988 1802.41
-71.3253 54.6988 1802.41
-71.8318 54.5345 1797
-72.3123 54.5345 1797
-72.7928 54.5345 1797
-73.2934 54.3713 1791.62
-73.8095 54.0476 1780.95
-74.3529 53.4118 1760
-74.8538 53.0994 1749.71
-75.3353 52.9446 1744.61
-75.8017 52.9446 1744.61
-76.2682 52.9446 1744.61
-76.7442 52.7907 1739.53
-77.2093 52.7907 1739.53
-77.6744 52.7907 1739.53
-78.1341 52.9446 1744.61
-78.6047 52.7907 1739.53
-79.0698 52.7907 1739.53
-79.5349 52.7907 1739.53
-80 52.7907 1739.53
-80.4651 52.7907 1739.53
-80.9302 52.7907 1739.53
-81.3953 52.7907 1739.53
-81.8659 52.9446 1744.61
-82.3324 52.9446 1744.61
-82.7988 52.9446 1744.61
-83.2653 52.9446 1744.61
-83.7427 53.0994 1749.71
-84.2105 53.0994 1749.71
-84.6921 53.2551 1754.84
-85.1613 53.2551 1754.84
-85.6637 53.5693 1765.19
-86.2275 54.3713 1791.62
-86.7674 54.864 1807.85
-87.2727 55.0303 1813.33
-87.7576 55.0303 1813.33
-88.2424 55.0303 1813.33
-88.7273 55.0303 1813.33
-89.2121 55.0303 1813.33
-89.7264 55.1976 1818.84
-90.1818 55.0303 1813.33
-90.6667 55.0303 1813.33
-91.1515 55.0303 1813.33
-91.6012 54.864 1807.85
-92.0846 54.864 1807.85
-92.568 54.864 1807.85
-93.0514 54.864 1807.85
-93.5347 54.864 1807.85
-93.9759 54.6988 1802.41
-94.4578 54.6988 1802.41
-94.9398 54.6988 1802.41
-95.4217 54.6988 1802.41
-95.9036 54.6988 1802.41
-96.3855 54.6988 1802.41
-96.8168 54.5345 1797
-97.2973 54.5345 1797
-97.7778 54.5345 1797
-98.2583 54.5345 1797
-98.7387 54.5345 1797
-99.1617 54.3713 1791.62
-99.6407 54.3713 1791.62
-100.12 54.3713 1791.62
-100.661 54.5345 1797
-101.141 54.5345 1797
-101.557 54.3713 1791.62
-102.036 54.3713 1791.62
-102.515 54.3713 1791.62
-102.994 54.3713 1791.62
-103.473 54.3713 1791.62
-103.952 54.3713 1791.62
-104.431 54.3713 1791.62
-104.91 54.3713 1791.62
-105.389 54.3713 1791.62
-105.946 54.5345 1797
-106.426 54.5345 1797
-106.907 54.5345 1797
-107.387 54.5345 1797
-107.868 54.5345 1797
-108.348 54.5345 1797
-108.829 54.5345 1797
-109.222 54.3713 1791.62
-109.436 53.8872 1775.67
-109.735 53.5693 1765.19
-110.029 53.2551 1754.84
-110.499 53.2551 1754.84
-110.877 53.0994 1749.71
-111.345 53.0994 1749.71
-111.72 52.9446 1744.61
-112.093 52.7907 1739.53
-112.558 52.7907 1739.53
-112.928 52.6377 1734.49
-113.295 52.4855 1729.48
-113.467 52.0344 1714.61
-113.829 51.8857 1709.71
-114.286 51.8857 1709.71
-114.743 51.8857 1709.71
-115.2 51.8857 1709.71
-115.657 51.8857 1709.71
-116.114 51.8857 1709.71
-116.571 51.8857 1709.71
-117.029 51.8857 1709.71
-117.379 51.7379 1704.84
-117.727 51.5909 1700
-118.182 51.5909 1700
-118.636 51.5909 1700
-119.091 51.5909 1700
-119.545 51.5909 1700
-120 51.5909 1700
-120.455 51.5909 1700
-120.909 51.5909 1700
-121.364 51.5909 1700
-121.818 51.5909 1700
-122.273 51.5909 1700
-122.727 51.5909 1700
-123.305 51.7379 1704.84
-123.761 51.7379 1704.84
-124.217 51.7379 1704.84
-124.672 51.7379 1704.84
-125.128 51.7379 1704.84
-125.584 51.7379 1704.84
-126.04 51.7379 1704.84
-126.496 51.7379 1704.84
-126.952 51.7379 1704.84
-127.407 51.7379 1704.84
-128 51.8857 1709.71
-128.457 51.8857 1709.71
-128.914 51.8857 1709.71
-129.371 51.8857 1709.71
-129.829 51.8857 1709.71
-130.286 51.8857 1709.71
-130.743 51.8857 1709.71
-131.2 51.8857 1709.71
-131.657 51.8857 1709.71
-132.114 51.8857 1709.71
-132.571 51.8857 1709.71
-133.029 51.8857 1709.71
-133.486 51.8857 1709.71
-133.943 51.8857 1709.71
-134.4 51.8857 1709.71
-134.857 51.8857 1709.71
-135.314 51.8857 1709.71
-136.092 52.1839 1719.54
-136.879 52.4855 1729.48
-137.674 52.7907 1739.53
-138.14 52.7907 1739.53
-138.605 52.7907 1739.53
-138.728 52.4855 1729.48
-135.501 49.2141 1621.68
-136.24 49.4823 1630.52
-136.216 49.0811 1617.3
-136.802 49.2141 1621.68
-137.548 49.4823 1630.52
-138.947 50.3047 1657.62
-139.391 50.3047 1657.62
-140.504 50.8683 1676.19
-139.78 49.8901 1643.96
-142.273 51.5909 1700
-143.815 52.4855 1729.48
-144.84 52.9446 1744.61
-145.689 53.2551 1754.84
-145.773 52.9446 1744.61
-145.476 52.3343 1724.5
-144.633 51.2994 1690.4
-144.538 50.8683 1676.19
-144.804 50.7263 1671.51
-145.434 50.8683 1676.19
-147.009 51.7379 1704.84
-149.038 52.9446 1744.61
-150.324 53.5693 1765.19
-151.006 53.7278 1770.41
-153.212 55.0303 1813.33
-161.611 60.9396 2008.05
-177.143 72.0635 2374.6
-192.511 82.9224 2732.42
-191.211 81.435 2683.41
-195.023 83.6866 2757.6
-179.289 71.7787 2365.22
-157.546 55.7055 1835.58
-152.686 51.8857 1709.71
-150.137 49.7534 1639.45
-150.575 49.7534 1639.45
-151.014 49.7534 1639.45
-151.452 49.7534 1639.45
-151.89 49.7534 1639.45
-152.329 49.7534 1639.45
-156.763 52.4855 1729.48
-165.641 58.2051 1917.95
-191.074 75.0413 2472.73
-208.152 86.0664 2836.02
-163.519 53.2551 1754.84
-163.256 52.7907 1739.53
-163.237 52.4855 1729.48
-163.218 52.1839 1719.54
-162.727 51.5909 1700
-160.661 50.0275 1648.48
-160.218 49.4823 1630.52
-160.435 49.3478 1626.09
-160.87 49.3478 1626.09
-161.304 49.3478 1626.09
-161.739 49.3478 1626.09
-162.174 49.3478 1626.09
-162.609 49.3478 1626.09
-163.043 49.3478 1626.09
-163.478 49.3478 1626.09
-164.142 49.4823 1630.52
-164.578 49.4823 1630.52
-165.246 49.6175 1634.97
-168.338 51.1549 1685.63
-178.193 56.5732 1864.17
-200.456 69.0494 2275.29
-219.649 79.6491 2624.56
-228.837 84.4651 2783.26
-221.674 80 2636.12
-212.459 74.4262 2452.46
-183.439 57.8344 1905.73
-175.718 53.2551 1754.84
-174.253 52.1839 1719.54
-174.441 52.0344 1714.61
-174.091 51.5909 1700
-173.746 51.1549 1685.63
-173.408 50.7263 1671.51
-173.593 50.585 1666.85
-174.039 50.585 1666.85
-174.749 50.7263 1671.51
-175.462 50.8683 1676.19
-175.91 50.8683 1676.19
-176.359 50.8683 1676.19
-176.807 50.8683 1676.19
-177.528 51.0112 1680.9
-180.519 52.3343 1724.5
-180.98 52.3343 1724.5
23.7209 53.2558 1739.53
23.2558 53.2558 1739.53
22.7907 53.2558 1739.53
22.6239 53.4111 1744.61
22.1574 53.4111 1744.61
21.691 53.4111 1744.61
21.2245 53.4111 1744.61
20.758 53.4111 1744.61
20.5848 53.5673 1749.71
20.117 53.5673 1749.71
19.6491 53.5673 1749.71
19.4721 53.7243 1754.84
19.0029 53.7243 1754.84
18.8235 53.8824 1760
18.3529 53.8824 1760
17.8824 53.8824 1760
17.4118 53.8824 1760
16.9412 53.8824 1760
16.7552 54.0413 1765.19
16.2832 54.0413 1765.19
15.8112 54.0413 1765.19
15.3392 54.0413 1765.19
14.8673 54.0413 1765.19
14.6746 54.2012 1770.41
14.2012 54.2012 1770.41
13.7278 54.2012 1770.41
13.2544 54.2012 1770.41
12.7811 54.2012 1770.41
12.5816 54.362 1775.67
12.1068 54.362 1775.67
11.632 54.362 1775.67
11.1573 54.362 1775.67
10.6825 54.362 1775.67
10.4762 54.5238 1780.95
10 54.5238 1780.95
9.52381 54.5238 1780.95
9.04762 54.5238 1780.95
8.57143 54.5238 1780.95
8.35821 54.6866 1786.27
7.8806 54.6866 1786.27
7.40299 54.6866 1786.27
7.18563 54.8503 1791.62
6.70659 54.8503 1791.62
6.22754 54.8503 1791.62
5.7485 54.8503 1791.62
5.26946 54.8503 1791.62
5.04505 55.015 1797
4.56456 55.015 1797
4.08408 55.015 1797
3.6036 55.015 1797
3.37349 55.1807 1802.41
2.89157 55.1807 1802.41
2.40964 55.1807 1802.41
2.17523 55.3474 1807.85
1.69184 55.3474 1807.85
1.20846 55.3474 1807.85
0.725076 55.3474 1807.85
0.241692 55.3474 1807.85
-0 55.5152 1813.33
-0.484848 55.5152 1813.33
-0.969697 55.5152 1813.33
-1.45455 55.5152 1813.33
-1.93939 55.5152 1813.33
-2.18845 55.6839 1818.84
-2.67477 55.6839 1818.84
-3.16109 55.6839 1818.84
-3.64742 55.6839 1818.84
-4.13374 55.6839 1818.84
-4.39024 55.8537 1824.39
-4.87805 55.8537 1824.39
-5.36585 55.8537 1824.39
-5.62691 56.0245 1829.97
-6.11621 56.0245 1829.97
-6.6055 56.0245 1829.97
-7.0948 56.0245 1829.97
-7.80488 55.8537 1824.39
-8.29268 55.8537 1824.39
-8.78049 55.8537 1824.39
-9.26829 55.8537 1824.39
-9.7561 55.8537 1824.39
-10.4559 55.6839 1818.84
-12.381 54.5238 1780.95
-12.8571 54.5238 1780.95
-13.3333 54.5238 1780.95
-13.8095 54.5238 1780.95
-14.0896 54.6866 1786.27
-14.5672 54.6866 1786.27
-15.0448 54.6866 1786.27
-15.5224 54.6866 1786.27
-16 54.6866 1786.27
-16.4776 54.6866 1786.27
-16.7665 54.8503 1791.62
-17.2455 54.8503 1791.62
-17.7246 54.8503 1791.62
-18.2036 54.8503 1791.62
-18.6826 54.8503 1791.62
-18.979 55.015 1797
-19.2771 55.1807 1802.41
-19.759 55.1807 1802.41
-20.241 55.1807 1802.41
-20.7229 55.1807 1802.41
-21.2048 55.1807 1802.41
-21.6867 55.1807 1802.41
-22.1687 55.1807 1802.41
-22.6506 55.1807 1802.41
-23.1325 55.1807 1802.41
-23.6145 55.1807 1802.41
-24.0964 55.1807 1802.41
-24.5783 55.1807 1802.41
-25.0602 55.1807 1802.41
-25.5422 55.1807 1802.41
-26.0241 55.1807 1802.41
-26.506 55.1807 1802.41
-26.988 55.1807 1802.41
-27.4699 55.1807 1802.41
-27.9518 55.1807 1802.41
-28.4337 55.1807 1802.41
-28.9157 55.1807 1802.41
-29.3976 55.1807 1802.41
-30.03 55.015 1797
-30.5105 55.015 1797
-30.991 55.015 1797
-31.4715 55.015 1797
-31.952 55.015 1797
-32.4324 55.015 1797
-32.7711 55.1807 1802.41
-33.253 55.1807 1802.41
-33.7349 55.1807 1802.41
-34.2169 55.1807 1802.41
-34.6988 55.1807 1802.41
-35.0453 55.3474 1807.85
-35.3939 55.5152 1813.33
-35.6098 55.8537 1824.39
-36.0976 55.8537 1824.39
-36.5854 55.8537 1824.39
-37.0732 55.8537 1824.39
-37.4312 56.0245 1829.97
-37.7914 56.1963 1835.58
-38.2822 56.1963 1835.58
-38.773 56.1963 1835.58
-39.2638 56.1963 1835.58
-39.6308 56.3692 1841.23
-40.1231 56.3692 1841.23
-40.4938 56.5432 1846.91
-40.9877 56.5432 1846.91
-41.4815 56.5432 1846.91
-41.8576 56.7183 1852.63
-42.3529 56.7183 1852.63
-42.8483 56.7183 1852.63
-43.2298 56.8944 1858.39
-43.9506 56.5432 1846.91
-44.5538 56.3692 1841.23
-45.0462 56.3692 1841.23
-45.5385 56.3692 1841.23
-46.135 56.1963 1835.58
-46.6258 56.1963 1835.58
-47.2171 56.0245 1829.97
-47.8049 55.8537 1824.39
-48.2927 55.8537 1824.39
-48.7805 55.8537 1824.39
-49.2683 55.8537 1824.39
-49.7561 55.8537 1824.39
-50.3343 55.6839 1818.84
-50.8207 55.6839 1818.84
-51.307 55.6839 1818.84
-51.7933 55.6839 1818.84
-52.3636 55.5152 1813.33
-52.8485 55.5152 1813.33
-53.3333 55.5152 1813.33
-53.8182 55.5152 1813.33
-54.303 55.5152 1813.33
-54.7879 55.5152 1813.33
-55.2727 55.5152 1813.33
-55.7576 55.5152 1813.33
-56.3142 55.3474 1807.85
-56.7976 55.3474 1807.85
-57.281 55.3474 1807.85
-57.7644 55.3474 1807.85
-58.2477 55.3474 1807.85
-58.7311 55.3474 1807.85
-59.2145 55.3474 1807.85
-59.6979 55.3474 1807.85
-60.1813 55.3474 1807.85
-60.6647 55.3474 1807.85
-61.148 55.3474 1807.85
-61.6314 55.3474 1807.85
-62.1148 55.3474 1807.85
-62.5982 55.3474 1807.85
-63.0816 55.3474 1807.85
-63.565 55.3474 1807.85
-64.0483 55.3474 1807.85
-64.5317 55.3474 1807.85
-65.0151 55.3474 1807.85
-65.4985 55.3474 1807.85
-65.9819 55.3474 1807.85
-66.4653 55.3474 1807.85
-66.9486 55.3474 1807.85
-67.432 55.3474 1807.85
-67.9154 55.3474 1807.85
-68.4337 55.1807 1802.41
-68.9157 55.1807 1802.41
-69.3976 55.1807 1802.41
-69.8795 55.1807 1802.41
-70.3614 55.1807 1802.41
-70.8434 55.1807 1802.41
-71.3514 55.015 1797
-71.8806 54.6866 1786.27
-72.3582 54.6866 1786.27
-72.8358 54.6866 1786.27
-73.3333 54.5238 1780.95
-73.8462 54.2012 1770.41
-74.3695 53.7243 1754.84
-74.8688 53.4111 1744.61
-75.3353 53.4111 1744.61
-75.8017 53.4111 1744.61
-76.2682 53.4111 1744.61
-76.7442 53.2558 1739.53
-77.2093 53.2558 1739.53
-77.6744 53.2558 1739.53
-78.1395 53.2558 1739.53
-78.6047 53.2558 1739.53
-79.0698 53.2558 1739.53
-79.5349 53.2558 1739.53
-80 53.2558 1739.53
-80.4651 53.2558 1739.53
-80.9302 53.2558 1739.53
-81.3953 53.2558 1739.53
-81.8605 53.2558 1739.53
-82.3324 53.4111 1744.61
-82.7988 53.4111 1744.61
-83.2653 53.4111 1744.61
-83.7427 53.5673 1749.71
-84.2105 53.5673 1749.71
-84.6921 53.7243 1754.84
-85.1613 53.7243 1754.84
-85.6637 54.0413 1765.19
-86.209 54.6866 1786.27
-86.7674 55.3474 1807.85
-87.2727 55.5152 1813.33
-87.7576 55.5152 1813.33
-88.2424 55.5152 1813.33
-88.7273 55.5152 1813.33
-89.2121 55.5152 1813.33
-89.7264 55.6839 1818.84
-90.1818 55.5152 1813.33
-90.6667 55.5152 1813.33
-91.1178 55.3474 1807.85
-91.6012 55.3474 1807.85
-92.0846 55.3474 1807.85
-92.568 55.3474 1807.85
-93.0514 55.3474 1807.85
-93.494 55.1807 1802.41
-94.0181 55.3474 1807.85
-94.4578 55.1807 1802.41
-94.9398 55.1807 1802.41
-95.4217 55.1807 1802.41
-95.8559 55.015 1797
-96.3363 55.015 1797
-96.8168 55.015 1797
-97.2973 55.015 1797
-97.7778 55.015 1797
-98.2583 55.015 1797
-98.6826 54.8503 1791.62
-99.1617 54.8503 1791.62
-99.6407 54.8503 1791.62
-100.12 54.8503 1791.62
-100.599 54.8503 1791.62
-101.078 54.8503 1791.62
-101.557 54.8503 1791.62
-102.036 54.8503 1791.62
-102.515 54.8503 1791.62
-102.994 54.8503 1791.62
-103.473 54.8503 1791.62
-103.952 54.8503 1791.62
-104.431 54.8503 1791.62
-104.91 54.8503 1791.62
-105.389 54.8503 1791.62
-105.946 55.015 1797
-106.426 55.015 1797
-106.907 55.015 1797
-107.387 55.015 1797
-107.868 55.015 1797
-108.348 55.015 1797
-108.829 55.015 1797
-109.222 54.8503 1791.62
-109.436 54.362 1775.67
-109.56 53.7243 1754.84
-109.942 53.5673 1749.71
-110.233 53.2558 1739.53
-110.877 53.5673 1749.71
-111.072 53.1014 1734.49
-111.536 53.1014 1734.49
-112.093 53.2558 1739.53
-112.37 52.948 1729.48
-113.023 53.2558 1739.53
-113.199 52.7954 1724.5
-113.467 52.4928 1714.61
-113.829 52.3429 1709.71
-114.286 52.3429 1709.71
-114.743 52.3429 1709.71
-115.2 52.3429 1709.71
-115.657 52.3429 1709.71
-116.114 52.3429 1709.71
-116.571 52.3429 1709.71
-117.029 52.3429 1709.71
-117.379 52.1937 1704.84
-117.727 52.0455 1700
-118.182 52.0455 1700
-118.636 52.0455 1700
-119.091 52.0455 1700
-119.545 52.0455 1700
-120 52.0455 1700
-120.455 52.0455 1700
-120.909 52.0455 1700
-121.364 52.0455 1700
-121.818 52.0455 1700
-122.273 52.0455 1700
-122.849 52.1937 1704.84
-123.305 52.1937 1704.84
-123.761 52.1937 1704.84
-124.217 52.1937 1704.84
-124.672 52.1937 1704.84
-125.128 52.1937 1704.84
-125.584 52.1937 1704.84
-126.04 52.1937 1704.84
-126.496 52.1937 1704.84
-126.952 52.1937 1704.84
-127.407 52.1937 1704.84
-128 52.3429 1709.71
-128.457 52.3429 1709.71
-128.914 52.3429 1709.71
-129.371 52.3429 1709.71
-129.829 52.3429 1709.71
-130.286 52.3429 1709.71
-130.743 52.3429 1709.71
-131.2 52.3429 1709.71
-131.657 52.3429 1709.71
-132.114 52.3429 1709.71
-132.571 52.3429 1709.71
-133.029 52.3429 1709.71
-133.486 52.3429 1709.71
-133.943 52.3429 1709.71
-134.4 52.3429 1709.71
-134.857 52.3429 1709.71
-135.314 52.3429 1709.71
-135.931 52.4928 1714.61
-136.715 52.7954 1724.5
-137.341 52.948 1729.48
-137.971 53.1014 1734.49
-138.435 53.1014 1734.49
-138.391 52.6437 1719.54
-135.501 49.6477 1621.68
-135.784 49.5135 1617.3
-136.216 49.5135 1617.3
-136.957 49.7826 1626.09
-139.83 51.898 1695.18
-144.096 55.1807 1802.41
-138.74 50.1918 1639.45
-146.258 56.1963 1835.58
-149.079 58.1587 1899.68
-147.864 56.7183 1852.63
-146.306 55.015 1797
-145.605 54.0413 1765.19
-145.689 53.7243 1754.84
-145.773 53.4111 1744.61
-145.476 52.7954 1724.5
-144.633 51.7514 1690.4
-144.538 51.3165 1676.19
-144.804 51.1732 1671.51
-145.434 51.3165 1676.19
-146.441 51.7514 1690.4
-149.038 53.4111 1744.61
-150.324 54.0413 1765.19
-151.006 54.2012 1770.41
-152.991 55.3474 1807.85
-156.962 57.9747 1893.67
-175.625 71.5625 2337.5
-184.407 77.6271 2535.59
-186.897 78.9655 2579.31
-183.568 76.0166 2482.99
-170.036 65.6631 2144.8
-158.754 57.0717 1864.17
-151.864 51.7514 1690.4
-150.137 50.1918 1639.45
-150.575 50.1918 1639.45
-151.014 50.1918 1639.45
-151.452 50.1918 1639.45
-151.89 50.1918 1639.45
-152.329 50.1918 1639.45
-155.241 51.898 1695.18
-167.895 60.2632 1968.42
-193.418 77.2996 2524.89
-210 88.0769 2876.92
-198 76.3333 2493.33
-166.565 55.6839 1818.84
-166.265 55.1807 1802.41
-163.237 52.948 1729.48
-163.458 52.7954 1724.5
-162.028 51.6056 1685.63
-160.884 50.6077 1653.04
-160.218 49.9183 1630.52
-160.435 49.7826 1626.09
-160.87 49.7826 1626.09
-161.304 49.7826 1626.09
-161.739 49.7826 1626.09
-162.174 49.7826 1626.09
-162.609 49.7826 1626.09
-163.043 49.7826 1626.09
-163.478 49.7826 1626.09
-164.142 49.9183 1630.52
-164.578 49.9183 1630.52
-165.246 50.0546 1634.97
-167.598 51.1732 1671.51
-174.371 54.8503 1791.62
-186.667 61.6835 2014.81
-222.143 81.7857 2671.43
-210.081 74.4715 2432.52
-214 76.3333 2493.33
-193.007 64.0559 2092.31
-183.111 58.1587 1899.68
-175.16 53.4111 1744.61
-174.253 52.6437 1719.54
-174.441 52.4928 1714.61
-174.629 52.3429 1709.71
-173.746 51.6056 1685.63
-173.408 51.1732 1671.51
-174.382 51.4607 1680.9
-174.831 51.4607 1680.9
-175.014 51.3165 1676.19
-176.271 51.7514 1690.4
-176.451 51.6056 1685.63
-176.901 51.6056 1685.63
-177.352 51.6056 1685.63
-178.079 51.7514 1690.4
-180.23 52.6437 1719.54
-180.98 52.7954 1724.5
23.7209 53.7209 1739.53
23.2558 53.7209 1739.53
23.0904 53.8776 1744.61
22.6239 53.8776 1744.61
22.1574 53.8776 1744.61
21.691 53.8776 1744.61
21.2245 53.8776 1744.61
20.758 53.8776 1744.61
20.5848 54.0351 1749.71
20.117 54.0351 1749.71
19.6491 54.0351 1749.71
19.4721 54.1935 1754.84
19.0029 54.1935 1754.84
18.8235 54.3529 1760
18.3529 54.3529 1760
17.8824 54.3529 1760
17.4118 54.3529 1760
16.9412 54.3529 1760
16.7552 54.5133 1765.19
16.2832 54.5133 1765.19
15.8112 54.5133 1765.19
15.3392 54.5133 1765.19
14.8673 54.5133 1765.19
14.6746 54.6746 1770.41
14.2012 54.6746 1770.41
13.7278 54.6746 1770.41
13.2544 54.6746 1770.41
12.7811 54.6746 1770.41
12.5816 54.8368 1775.67
12.1068 54.8368 1775.67
11.632 54.8368 1775.67
11.1573 54.8368 1775.67
10.6825 54.8368 1775.67
10.4762 55 1780.95
10 55 1780.95
9.52381 55 1780.95
9.04762 55 1780.95
8.57143 55 1780.95
8.35821 55.1642 1786.27
7.8806 55.1642 1786.27
7.40299 55.1642 1786.27
6.92537 55.1642 1786.27
6.70659 55.3293 1791.62
6.22754 55.3293 1791.62
5.7485 55.3293 1791.62
5.26946 55.3293 1791.62
4.79042 55.3293 1791.62
4.56456 55.4955 1797
4.08408 55.4955 1797
3.6036 55.4955 1797
3.12312 55.4955 1797
2.89157 55.6627 1802.41
2.40964 55.6627 1802.41
2.17523 55.8308 1807.85
1.69184 55.8308 1807.85
1.20846 55.8308 1807.85
0.725076 55.8308 1807.85
0.241692 55.8308 1807.85
-0 56 1813.33
-0.484848 56 1813.33
-0.969697 56 1813.33
-1.45455 56 1813.33
-1.93939 56 1813.33
-2.18845 56.1702 1818.84
-2.67477 56.1702 1818.84
-3.16109 56.1702 1818.84
-3.64742 56.1702 1818.84
-4.13374 56.1702 1818.84
-4.39024 56.3415 1824.39
-4.87805 56.3415 1824.39
-5.36585 56.3415 1824.39
-5.85366 56.3415 1824.39
-6.11621 56.5138 1829.97
-6.6055 56.5138 1829.97
-7.31707 56.3415 1824.39
-8.02432 56.1702 1818.84
-8.72727 56 1813.33
-9.42598 55.8308 1807.85
-9.90937 55.8308 1807.85
-10.8108 55.4955 1797
-11.497 55.3293 1791.62
-11.976 55.3293 1791.62
-12.6567 55.1642 1786.27
-13.1343 55.1642 1786.27
-13.6119 55.1642 1786.27
-14.0896 55.1642 1786.27
-14.3713 55.3293 1791.62
-14.8503 55.3293 1791.62
-15.3293 55.3293 1791.62
-15.8084 55.3293 1791.62
-16.2874 55.3293 1791.62
-16.7665 55.3293 1791.62
-17.2455 55.3293 1791.62
-17.7246 55.3293 1791.62
-18.2036 55.3293 1791.62
-18.4985 55.4955 1797
-18.7952 55.6627 1802.41
-19.2771 55.6627 1802.41
-19.577 55.8308 1807.85
-20.241 55.6627 1802.41
-20.7229 55.6627 1802.41
-21.2048 55.6627 1802.41
-21.6867 55.6627 1802.41
-22.1687 55.6627 1802.41
-22.6506 55.6627 1802.41
-23.1325 55.6627 1802.41
-23.6145 55.6627 1802.41
-24.0964 55.6627 1802.41
-24.5783 55.6627 1802.41
-25.0602 55.6627 1802.41
-25.5422 55.6627 1802.41
-26.0241 55.6627 1802.41
-26.506 55.6627 1802.41
-26.988 55.6627 1802.41
-27.4699 55.6627 1802.41
-27.9518 55.6627 1802.41
-28.4337 55.6627 1802.41
-28.9157 55.6627 1802.41
-29.3976 55.6627 1802.41
-30.03 55.4955 1797
-30.5105 55.4955 1797
-30.991 55.4955 1797
-31.4715 55.4955 1797
-31.952 55.4955 1797
-32.4324 55.4955 1797
-32.9129 55.4955 1797
-33.253 55.6627 1802.41
-33.7349 55.6627 1802.41
-34.2169 55.6627 1802.41
-34.6988 55.6627 1802.41
-35.1807 55.6627 1802.41
-35.5287 55.8308 1807.85
-35.8788 56 1813.33
-36.3636 56 1813.33
-36.8485 56 1813.33
-37.2036 56.1702 1818.84
-37.4312 56.5138 1829.97
-37.7914 56.6871 1835.58
-38.2822 56.6871 1835.58
-38.773 56.6871 1835.58
-39.2638 56.6871 1835.58
-39.6308 56.8615 1841.23
-40.1231 56.8615 1841.23
-40.4938 57.037 1846.91
-40.9877 57.037 1846.91
-41.4815 57.037 1846.91
-41.9753 57.037 1846.91
-42.3529 57.2136 1852.63
-42.8483 57.2136 1852.63
-43.3437 57.2136 1852.63
-43.9506 57.037 1846.91
-44.5538 56.8615 1841.23
-45.0462 56.8615 1841.23
-45.5385 56.8615 1841.23
-46.135 56.6871 1835.58
-46.6258 56.6871 1835.58
-47.2171 56.5138 1829.97
-47.8049 56.3415 1824.39
-48.1957 56.5138 1829.97
-48.7805 56.3415 1824.39
-49.2683 56.3415 1824.39
-49.848 56.1702 1818.84
-50.3343 56.1702 1818.84
-50.8207 56.1702 1818.84
-51.307 56.1702 1818.84
-51.8788 56 1813.33
-52.3636 56 1813.33
-52.8485 56 1813.33
-53.3333 56 1813.33
-53.8182 56 1813.33
-54.303 56 1813.33
-54.7879 56 1813.33
-55.2727 56 1813.33
-55.7576 56 1813.33
-56.2424 56 1813.33
-56.7976 55.8308 1807.85
-57.281 55.8308 1807.85
-57.7644 55.8308 1807.85
-58.2477 55.8308 1807.85
-58.7311 55.8308 1807.85
-59.2145 55.8308 1807.85
-59.6979 55.8308 1807.85
-60.1813 55.8308 1807.85
-60.6647 55.8308 1807.85
-61.148 55.8308 1807.85
-61.6314 55.8308 1807.85
-62.1148 55.8308 1807.85
-62.5982 55.8308 1807.85
-63.0816 55.8308 1807.85
-63.565 55.8308 1807.85
-64.0483 55.8308 1807.85
-64.5317 55.8308 1807.85
-65.0151 55.8308 1807.85
-65.4985 55.8308 1807.85
-65.9819 55.8308 1807.85
-66.4653 55.8308 1807.85
-66.9486 55.8308 1807.85
-67.432 55.8308 1807.85
-67.9154 55.8308 1807.85
-68.4337 55.6627 1802.41
-68.9157 55.6627 1802.41
-69.3976 55.6627 1802.41
-69.8795 55.6627 1802.41
-70.3614 55.6627 1802.41
-70.8434 55.6627 1802.41
-71.403 55.1642 1786.27
-71.9288 54.8368 1775.67
-72.4484 54.5133 1765.19
-72.9204 54.5133 1765.19
-73.4118 54.3529 1760
-73.9003 54.1935 1754.84
-74.386 54.0351 1749.71
-74.8837 53.7209 1739.53
-75.3488 53.7209 1739.53
-75.814 53.7209 1739.53
-76.2791 53.7209 1739.53
-76.7442 53.7209 1739.53
-77.2093 53.7209 1739.53
-77.6744 53.7209 1739.53
-78.1395 53.7209 1739.53
-78.6047 53.7209 1739.53
-79.0698 53.7209 1739.53
-79.5349 53.7209 1739.53
-80 53.7209 1739.53
-80.4651 53.7209 1739.53
-80.9302 53.7209 1739.53
-81.3953 53.7209 1739.53
-81.8605 53.7209 1739.53
-82.3324 53.8776 1744.61
-82.7988 53.8776 1744.61
-83.2653 53.8776 1744.61
-83.7427 54.0351 1749.71
-84.2105 54.0351 1749.71
-84.6921 54.1935 1754.84
-85.1613 54.1935 1754.84
-85.6805 54.6746 1770.41
-86.2462 55.4955 1797
-86.7879 56 1813.33
-87.2727 56 1813.33
-87.7576 56 1813.33
-88.2424 56 1813.33
-88.7273 56 1813.33
-89.2121 56 1813.33
-89.7264 56.1702 1818.84
-90.1818 56 1813.33
-90.6667 56 1813.33
-91.1178 55.8308 1807.85
-91.5663 55.6627 1802.41
-92.0482 55.6627 1802.41
-92.5301 55.6627 1802.41
-93.012 55.6627 1802.41
-93.4535 55.4955 1797
-93.9339 55.4955 1797
-94.4144 55.4955 1797
-94.8949 55.4955 1797
-95.3754 55.4955 1797
-95.8559 55.4955 1797
-96.3363 55.4955 1797
-96.8168 55.4955 1797
-97.2973 55.4955 1797
-97.7246 55.3293 1791.62
-98.2036 55.3293 1791.62
-98.6826 55.3293 1791.62
-99.1617 55.3293 1791.62
-99.6407 55.3293 1791.62
-100.12 55.3293 1791.62
-100.599 55.3293 1791.62
-101.078 55.3293 1791.62
-101.557 55.3293 1791.62
-102.036 55.3293 1791.62
-102.515 55.3293 1791.62
-102.994 55.3293 1791.62
-103.473 55.3293 1791.62
-103.952 55.3293 1791.62
-104.431 55.3293 1791.62
-104.91 55.3293 1791.62
-105.389 55.3293 1791.62
-105.868 55.3293 1791.62
-106.426 55.4955 1797
-106.907 55.4955 1797
-107.387 55.4955 1797
-107.868 55.4955 1797
-108.348 55.4955 1797
-108.829 55.4955 1797
-109.222 55.3293 1791.62
-109.436 54.8368 1775.67
-109.302 53.7209 1739.53
-109.595 53.4104 1729.48
-109.885 53.1034 1719.54
-110.345 53.1034 1719.54
-110.805 53.1034 1719.54
-111.175 52.9513 1714.61
-111.633 52.9513 1714.61
-112.092 52.9513 1714.61
-112.55 52.9513 1714.61
-112.914 52.8 1709.71
-113.371 52.8 1709.71
-113.829 52.8 1709.71
-114.286 52.8 1709.71
-114.743 52.8 1709.71
-115.2 52.8 1709.71
-115.657 52.8 1709.71
-116.114 52.8 1709.71
-116.571 52.8 1709.71
-117.029 52.8 1709.71
-117.379 52.6496 1704.84
-117.727 52.5 1700
-118.182 52.5 1700
-118.636 52.5 1700
-119.091 52.5 1700
-119.545 52.5 1700
-120 52.5 1700
-120.455 52.5 1700
-120.909 52.5 1700
-121.364 52.5 1700
-121.818 52.5 1700
-122.393 52.6496 1704.84
-122.849 52.6496 1704.84
-123.305 52.6496 1704.84
-123.761 52.6496 1704.84
-124.217 52.6496 1704.84
-124.672 52.6496 1704.84
-125.128 52.6496 1704.84
-125.584 52.6496 1704.84
-126.04 52.6496 1704.84
-126.496 52.6496 1704.84
-126.952 52.6496 1704.84
-127.407 52.6496 1704.84
-128 52.8 1709.71
-128.457 52.8 1709.71
-128.914 52.8 1709.71
-129.371 52.8 1709.71
-129.829 52.8 1709.71
-130.286 52.8 1709.71
-130.743 52.8 1709.71
-131.2 52.8 1709.71
-131.657 52.8 1709.71
-132.114 52.8 1709.71
-132.571 52.8 1709.71
-133.029 52.8 1709.71
-133.486 52.8 1709.71
-133.943 52.8 1709.71
-134.4 52.8 1709.71
-134.857 52.8 1709.71
-135.314 52.8 1709.71
-135.771 52.8 1709.71
-136.39 52.9513 1714.61
-137.011 53.1034 1719.54
-137.471 53.1034 1719.54
-137.931 53.1034 1719.54
-138.057 52.8 1709.71
-135.351 49.9459 1617.3
-135.784 49.9459 1617.3
-136.216 49.9459 1617.3
-137.741 50.9091 1648.48
-142.301 54.5133 1765.19
-152.628 63.0717 2042.32
-164.743 73.0435 2365.22
-168.889 76.0494 2462.55
-166.349 73.3333 2374.6
-159.42 66.9565 2168.12
-147.523 56.5138 1829.97
-145.605 54.5133 1765.19
-145.689 54.1935 1754.84
-146.158 54.1935 1754.84
-145.476 53.2565 1724.5
-145 52.5 1700
-144.538 51.7647 1676.19
-144.804 51.6201 1671.51
-145.434 51.7647 1676.19
-147.2 52.8 1709.71
-149.038 53.8776 1744.61
-150.324 54.5133 1765.19
-151.006 54.6746 1770.41
-151.905 55 1780.95
-155.763 57.5701 1864.17
-155.789 57.2136 1852.63
-160.261 60.1954 1949.19
-160.519 60 1942.86
-157.276 57.2136 1852.63
-160.772 59.4212 1924.12
-154.793 54.6746 1770.41
-150.276 51.0497 1653.04
-150.137 50.6301 1639.45
-150.575 50.6301 1639.45
-151.014 50.6301 1639.45
-151.452 50.6301 1639.45
-151.89 50.6301 1639.45
-152.329 50.6301 1639.45
-154.19 51.6201 1671.51
-160.725 55.8308 1807.85
-182.595 70.5344 2283.97
-211.262 89.7087 2904.85
-189.767 71.6279 2319.38
-170.99 59.0415 1911.82
-165.238 55 1780.95
-163.237 53.4104 1729.48
-162.98 52.9513 1714.61
-162.26 52.2034 1690.4
-161.108 51.1911 1657.62
-160.218 50.3542 1630.52
-160.435 50.2174 1626.09
-160.87 50.2174 1626.09
-161.304 50.2174 1626.09
-161.739 50.2174 1626.09
-162.174 50.2174 1626.09
-162.609 50.2174 1626.09
-163.043 50.2174 1626.09
-163.706 50.3542 1630.52
-164.142 50.3542 1630.52
-164.578 50.3542 1630.52
-165.246 50.4918 1634.97
-166.63 51.0497 1653.04
-170.057 52.8 1709.71
-175.135 55.4955 1797
-178.272 57.037 1846.91
-179.688 57.5701 1864.17
-179.259 57.037 1846.91
-178.537 56.3415 1824.39
-176.38 54.8368 1775.67
-174.609 53.5652 1734.49
-174.253 53.1034 1719.54
-174.441 52.9513 1714.61
-174.9 52.9513 1714.61
-175.358 52.9513 1714.61
-175.543 52.8 1709.71
-175.726 52.6496 1704.84
-176.182 52.6496 1704.84
-176.638 52.6496 1704.84
-177.371 52.8 1709.71
-177.55 52.6496 1704.84
-178.286 52.8 1709.71
-178.462 52.6496 1704.84
-180.058 53.2565 1724.5
-180.519 53.2565 1724.5
-180.98 53.2565 1724.5
23.7209 54.186 1739.53
23.2558 54.186 1739.53
22.7907 54.186 1739.53
22.6239 54.344 1744.61
22.1574 54.344 1744.61
21.691 54.344 1744.61
21.2245 54.344 1744.61
20.758 54.344 1744.61
20.5848 54.5029 1749.71
20.117 54.5029 1749.71
19.6491 54.5029 1749.71
19.4721 54.6628 1754.84
19.0029 54.6628 1754.84
18.8235 54.8235 1760
18.3529 54.8235 1760
17.8824 54.8235 1760
17.4118 54.8235 1760
16.9412 54.8235 1760
16.7552 54.9853 1765.19
16.2832 54.9853 1765.19
15.8112 54.9853 1765.19
15.3392 54.9853 1765.19
14.8673 54.9853 1765.19
14.6746 55.1479 1770.41
14.2012 55.1479 1770.41
13.7278 55.1479 1770.41
13.2544 55.1479 1770.41
12.7811 55.1479 1770.41
12.5816 55.3116 1775.67
12.1068 55.3116 1775.67
11.632 55.3116 1775.67
11.1573 55.3116 1775.67
10.6825 55.3116 1775.67
10.4762 55.4762 1780.95
10 55.4762 1780.95
9.52381 55.4762 1780.95
9.04762 55.4762 1780.95
8.57143 55.4762 1780.95
8.35821 55.6418 1786.27
7.8806 55.6418 1786.27
7.40299 55.6418 1786.27
6.92537 55.6418 1786.27
6.70659 55.8084 1791.62
6.22754 55.8084 1791.62
5.7485 55.8084 1791.62
5.26946 55.8084 1791.62
4.79042 55.8084 1791.62
4.56456 55.976 1797
4.08408 55.976 1797
3.6036 55.976 1797
3.12312 55.976 1797
2.89157 56.1446 1802.41
2.40964 56.1446 1802.41
2.17523 56.3142 1807.85
1.69184 56.3142 1807.85
1.20846 56.3142 1807.85
0.725076 56.3142 1807.85
0.241692 56.3142 1807.85
-0 56.4848 1813.33
-0.484848 56.4848 1813.33
-0.969697 56.4848 1813.33
-1.45455 56.4848 1813.33
-1.93939 56.4848 1813.33
-2.18845 56.6565 1818.84
-2.67477 56.6565 1818.84
-3.16109 56.6565 1818.84
-3.64742 56.6565 1818.84
-4.13374 56.6565 1818.84
-4.39024 56.8293 1824.39
-4.87805 56.8293 1824.39
-5.36585 56.8293 1824.39
-5.85366 56.8293 1824.39
-6.34146 56.8293 1824.39
-6.6055 57.0031 1829.97
-7.31707 56.8293 1824.39
-8.24242 56.4848 1813.33
-9.15663 56.1446 1802.41
-9.84985 55.976 1797
-10.5389 55.8084 1791.62
-11.018 55.8084 1791.62
-11.497 55.8084 1791.62
-11.976 55.8084 1791.62
-12.4551 55.8084 1791.62
-13.1343 55.6418 1786.27
-13.6119 55.6418 1786.27
-13.8922 55.8084 1791.62
-14.3713 55.8084 1791.62
-14.8503 55.8084 1791.62
-15.3293 55.8084 1791.62
-15.8084 55.8084 1791.62
-16.2874 55.8084 1791.62
-16.7665 55.8084 1791.62
-17.2455 55.8084 1791.62
-17.7246 55.8084 1791.62
-18.018 55.976 1797
-18.4985 55.976 1797
-18.7952 56.1446 1802.41
-19.2771 56.1446 1802.41
-19.759 56.1446 1802.41
-20.241 56.1446 1802.41
-20.7229 56.1446 1802.41
-21.2048 56.1446 1802.41
-21.6867 56.1446 1802.41
-22.1687 56.1446 1802.41
-22.6506 56.1446 1802.41
-23.1325 56.1446 1802.41
-23.6145 56.1446 1802.41
-24.0964 56.1446 1802.41
-24.5783 56.1446 1802.41
-25.0602 56.1446 1802.41
-25.5422 56.1446 1802.41
-26.0241 56.1446 1802.41
-26.506 56.1446 1802.41
-26.988 56.1446 1802.41
-27.4699 56.1446 1802.41
-27.9518 56.1446 1802.41
-28.4337 56.1446 1802.41
-28.9157 56.1446 1802.41
-29.3976 56.1446 1802.41
-30.03 55.976 1797
-30.5105 55.976 1797
-30.991 55.976 1797
-31.4715 55.976 1797
-31.952 55.976 1797
-32.4324 55.976 1797
-32.9129 55.976 1797
-33.3934 55.976 1797
-33.7349 56.1446 1802.41
-34.2169 56.1446 1802.41
-34.6988 56.1446 1802.41
-35.1807 56.1446 1802.41
-35.6627 56.1446 1802.41
-36.0121 56.3142 1807.85
-36.4955 56.3142 1807.85
-36.9789 56.3142 1807.85
-37.3333 56.4848 1813.33
-37.4312 57.0031 1829.97
-37.7914 57.1779 1835.58
-38.2822 57.1779 1835.58
-38.6462 57.3538 1841.23
-39.1385 57.3538 1841.23
-39.6308 57.3538 1841.23
-40 57.5309 1846.91
-40.4938 57.5309 1846.91
-40.9877 57.5309 1846.91
-41.4815 57.5309 1846.91
-41.9753 57.5309 1846.91
-42.4691 57.5309 1846.91
-42.8483 57.709 1852.63
-43.4568 57.5309 1846.91
-43.9506 57.5309 1846.91
-44.5538 57.3538 1841.23
-45.0462 57.3538 1841.23
-45.5385 57.3538 1841.23
-46.135 57.1779 1835.58
-46.6258 57.1779 1835.58
-47.2171 57.0031 1829.97
-47.8049 56.8293 1824.39
-48.2927 56.8293 1824.39
-48.7805 56.8293 1824.39
-49.2683 56.8293 1824.39
-49.848 56.6565 1818.84
-50.3343 56.6565 1818.84
-50.8207 56.6565 1818.84
-51.307 56.6565 1818.84
-51.8788 56.4848 1813.33
-52.3636 56.4848 1813.33
-52.8485 56.4848 1813.33
-53.3333 56.4848 1813.33
-53.8182 56.4848 1813.33
-54.303 56.4848 1813.33
-54.7879 56.4848 1813.33
-55.2727 56.4848 1813.33
-55.7576 56.4848 1813.33
-56.2424 56.4848 1813.33
-56.7976 56.3142 1807.85
-57.281 56.3142 1807.85
-57.7644 56.3142 1807.85
-58.2477 56.3142 1807.85
-58.7311 56.3142 1807.85
-59.2145 56.3142 1807.85
-59.6979 56.3142 1807.85
-60.1813 56.3142 1807.85
-60.6647 56.3142 1807.85
-61.148 56.3142 1807.85
-61.6314 56.3142 1807.85
-62.1148 56.3142 1807.85
-62.5982 56.3142 1807.85
-63.0816 56.3142 1807.85
-63.565 56.3142 1807.85
-64.0483 56.3142 1807.85
-64.5317 56.3142 1807.85
-65.0151 56.3142 1807.85
-65.4985 56.3142 1807.85
-65.9819 56.3142 1807.85
-66.4653 56.3142 1807.85
-66.9486 56.3142 1807.85
-67.432 56.3142 1807.85
-67.9154 56.3142 1807.85
-68.4337 56.1446 1802.41
-68.9157 56.1446 1802.41
-69.3976 56.1446 1802.41
-69.8795 56.1446 1802.41
-70.3614 56.1446 1802.41
-70.8709 55.976 1797
-71.3772 55.8084 1791.62
-72 54.8235 1760
-72.4927 54.6628 1754.84
-72.9825 54.5029 1749.71
-73.4503 54.5029 1749.71
-73.9359 54.344 1744.61
-74.4023 54.344 1744.61
-74.8837 54.186 1739.53
-75.3488 54.186 1739.53
-75.814 54.186 1739.53
-76.2791 54.186 1739.53
-76.7442 54.186 1739.53
-77.2093 54.186 1739.53
-77.6744 54.186 1739.53
-78.1395 54.186 1739.53
-78.6047 54.186 1739.53
-79.0698 54.186 1739.53
-79.5349 54.186 1739.53
-80 54.186 1739.53
-80.4651 54.186 1739.53
-80.9302 54.186 1739.53
-81.3953 54.186 1739.53
-81.8605 54.186 1739.53
-82.3324 54.344 1744.61
-82.7988 54.344 1744.61
-83.2653 54.344 1744.61
-83.7427 54.5029 1749.71
-84.2105 54.5029 1749.71
-84.6921 54.6628 1754.84
-85.1613 54.6628 1754.84
-85.6805 55.1479 1770.41
-86.2651 56.1446 1802.41
-86.7879 56.4848 1813.33
-87.2727 56.4848 1813.33
-87.7576 56.4848 1813.33
-88.2675 56.6565 1818.84
-88.7273 56.4848 1813.33
-89.2121 56.4848 1813.33
-89.7264 56.6565 1818.84
-90.1818 56.4848 1813.33
-90.6667 56.4848 1813.33
-91.0843 56.1446 1802.41
-91.5663 56.1446 1802.41
-92.0482 56.1446 1802.41
-92.5301 56.1446 1802.41
-92.973 55.976 1797
-93.4535 55.976 1797
-93.9339 55.976 1797
-94.4144 55.976 1797
-94.8949 55.976 1797
-95.3754 55.976 1797
-95.8559 55.976 1797
-96.3363 55.976 1797
-96.8168 55.976 1797
-97.2455 55.8084 1791.62
-97.7246 55.8084 1791.62
-98.2036 55.8084 1791.62
-98.6826 55.8084 1791.62
-99.1617 55.8084 1791.62
-99.6407 55.8084 1791.62
-100.12 55.8084 1791.62
-100.599 55.8084 1791.62
-101.078 55.8084 1791.62
-101.557 55.8084 1791.62
-102.036 55.8084 1791.62
-102.515 55.8084 1791.62
-102.994 55.8084 1791.62
-103.473 55.8084 1791.62
-103.952 55.8084 1791.62
-104.431 55.8084 1791.62
-104.91 55.8084 1791.62
-105.389 55.8084 1791.62
-105.868 55.8084 1791.62
-106.426 55.976 1797
-106.907 55.976 1797
-107.387 55.976 1797
-107.868 55.976 1797
-108.348 55.976 1797
-108.829 55.976 1797
-109.222 55.8084 1791.62
-109.349 55.1479 1770.41
-109.302 54.186 1739.53
-109.425 53.5632 1719.54
-109.799 53.4097 1714.61
-110.171 53.2571 1709.71
-110.629 53.2571 1709.71
-111.086 53.2571 1709.71
-111.543 53.2571 1709.71
-112 53.2571 1709.71
-112.457 53.2571 1709.71
-112.914 53.2571 1709.71
-113.371 53.2571 1709.71
-113.829 53.2571 1709.71
-114.286 53.2571 1709.71
-114.743 53.2571 1709.71
-115.2 53.2571 1709.71
-115.657 53.2571 1709.71
-116.114 53.2571 1709.71
-116.571 53.2571 1709.71
-116.923 53.1054 1704.84
-117.379 53.1054 1704.84
-117.727 52.9545 1700
-118.182 52.9545 1700
-118.636 52.9545 1700
-119.091 52.9545 1700
-119.545 52.9545 1700
-120 52.9545 1700
-120.455 52.9545 1700
-120.909 52.9545 1700
-121.364 52.9545 1700
-121.818 52.9545 1700
-122.393 53.1054 1704.84
-122.849 53.1054 1704.84
-123.305 53.1054 1704.84
-123.761 53.1054 1704.84
-124.217 53.1054 1704.84
-124.672 53.1054 1704.84
-125.128 53.1054 1704.84
-125.584 53.1054 1704.84
-126.04 53.1054 1704.84
-126.496 53.1054 1704.84
-126.952 53.1054 1704.84
-127.407 53.1054 1704.84
-128 53.2571 1709.71
-128.457 53.2571 1709.71
-128.914 53.2571 1709.71
-129.371 53.2571 1709.71
-129.829 53.2571 1709.71
-130.286 53.2571 1709.71
-130.743 53.2571 1709.71
-131.2 53.2571 1709.71
-131.657 53.2571 1709.71
-132.114 53.2571 1709.71
-132.571 53.2571 1709.71
-133.029 53.2571 1709.71
-133.486 53.2571 1709.71
-133.943 53.2571 1709.71
-134.4 53.2571 1709.71
-134.857 53.2571 1709.71
-135.314 53.2571 1709.71
-135.771 53.2571 1709.71
-136.39 53.4097 1714.61
-136.848 53.4097 1714.61
-137.307 53.4097 1714.61
-137.436 53.1054 1704.84
-137.892 53.1054 1704.84
-135.652 50.6522 1626.09
-135.784 50.3784 1617.3
-136.216 50.3784 1617.3
-138.222 51.7778 1662.22
-144.785 57.1779 1835.58
-174.159 82.4779 2647.79
-181.132 87.9245 2822.64
-182.37 88.3412 2836.02
-180.741 86.2963 2770.37
-168.032 74.8594 2403.21
-150.095 59.1746 1899.68
-147.599 56.6565 1818.84
-145.689 54.6628 1754.84
-146.158 54.6628 1754.84
-145.855 54.029 1734.49
-144.09 52.2129 1676.19
-144.538 52.2129 1676.19
-144.804 52.067 1671.51
-145.434 52.2129 1676.19
-146.629 52.8045 1695.18
-149.038 54.344 1744.61
-150.324 54.9853 1765.19
-151.006 55.1479 1770.41
-151.691 55.3116 1775.67
-151.953 55.1479 1770.41
-156.025 57.8882 1858.39
-153.772 55.8084 1791.62
-154.699 56.1446 1802.41
-155.636 56.4848 1813.33
-155.21 55.8084 1791.62
-149.451 51.2088 1643.96
-149.89 51.2088 1643.96
-150.137 51.0685 1639.45
-150.575 51.0685 1639.45
-151.014 51.0685 1639.45
-151.452 51.0685 1639.45
-151.89 51.0685 1639.45
-152.329 51.0685 1639.45
-156.322 53.5632 1719.54
-161.713 57.0031 1829.97
-185.412 73.098 2346.67
-202.353 84.3439 2707.69
-214.095 88.7619 2849.52
-189.344 71.9691 2310.42
-174.305 61.7219 1981.46
-165.749 55.8084 1791.62
-163.237 53.8728 1729.48
-163.218 53.5632 1719.54
-162.493 52.8045 1695.18
-160.884 51.4917 1653.04
-160.218 50.7902 1630.52
-160.435 50.6522 1626.09
-160.87 50.6522 1626.09
-161.304 50.6522 1626.09
-161.739 50.6522 1626.09
-162.174 50.6522 1626.09
-162.609 50.6522 1626.09
-163.27 50.7902 1630.52
-163.706 50.7902 1630.52
-164.142 50.7902 1630.52
-164.578 50.7902 1630.52
-165.246 50.929 1634.97
-165.918 51.0685 1639.45
-167.313 51.6343 1657.62
-169.492 52.6554 1690.4
-171.232 53.4097 1714.61
-171.429 53.2571 1709.71
-171.886 53.2571 1709.71
-172.874 53.5632 1719.54
-173.333 53.5632 1719.54
-173.793 53.5632 1719.54
-174.253 53.5632 1719.54
-174.441 53.4097 1714.61
-175.172 53.5632 1719.54
-175.632 53.5632 1719.54
-176.092 53.5632 1719.54
-176.552 53.5632 1719.54
-177.011 53.5632 1719.54
-177.471 53.5632 1719.54
-177.931 53.5632 1719.54
-178.391 53.5632 1719.54
-178.851 53.5632 1719.54
-179.026 53.4097 1714.61
-179.77 53.5632 1719.54
-180.519 53.7176 1724.5
-180.98 53.7176 1724.5
23.7209 54.6512 1739.53
23.2558 54.6512 1739.53
22.7907 54.6512 1739.53
22.6239 54.8105 1744.61
22.1574 54.8105 1744.61
21.691 54.8105 1744.61
21.2245 54.8105 1744.61
20.758 54.8105 1744.61
20.5848 54.9708 1749.71
20.117 54.9708 1749.71
19.6491 54.9708 1749.71
19.4721 55.132 1754.84
19.0029 55.132 1754.84
18.8235 55.2941 1760
18.3529 55.2941 1760
17.8824 55.2941 1760
17.4118 55.2941 1760
16.9412 55.2941 1760
16.7552 55.4572 1765.19
16.2832 55.4572 1765.19
15.8112 55.4572 1765.19
15.3392 55.4572 1765.19
14.8673 55.4572 1765.19
14.6746 55.6213 1770.41
14.2012 55.6213 1770.41
13.7278 55.6213 1770.41
13.2544 55.6213 1770.41
13.0564 55.7864 1775.67
12.5816 55.7864 1775.67
12.1068 55.7864 1775.67
11.632 55.7864 1775.67
11.4286 55.9524 1780.95
10.6825 55.7864 1775.67
10.4762 55.9524 1780.95
10 55.9524 1780.95
9.52381 55.9524 1780.95
9.04762 55.9524 1780.95
8.57143 55.9524 1780.95
8.35821 56.1194 1786.27
7.8806 56.1194 1786.27
7.40299 56.1194 1786.27
6.92537 56.1194 1786.27
6.44776 56.1194 1786.27
6.22754 56.2874 1791.62
5.7485 56.2874 1791.62
5.26946 56.2874 1791.62
4.79042 56.2874 1791.62
4.56456 56.4565 1797
4.08408 56.4565 1797
3.6036 56.4565 1797
3.12312 56.4565 1797
2.89157 56.6265 1802.41
2.40964 56.6265 1802.41
2.17523 56.7976 1807.85
1.69184 56.7976 1807.85
1.20846 56.7976 1807.85
0.725076 56.7976 1807.85
0.241692 56.7976 1807.85
-0 56.9697 1813.33
-0.484848 56.9697 1813.33
-0.969697 56.9697 1813.33
-1.45455 56.9697 1813.33
-1.93939 56.9697 1813.33
-2.18845 57.1429 1818.84
-2.67477 57.1429 1818.84
-3.16109 57.1429 1818.84
-3.64742 57.1429 1818.84
-4.13374 57.1429 1818.84
-4.39024 57.3171 1824.39
-4.87805 57.3171 1824.39
-5.36585 57.3171 1824.39
-5.85366 57.3171 1824.39
-6.34146 57.3171 1824.39
-6.6055 57.4924 1829.97
-7.31707 57.3171 1824.39
