-17.1883 3.18302 1587.27
-17.6127 3.18302 1587.27
-18.2011 3.1746 1583.07
-18.6243 3.1746 1583.07
-19.0476 3.1746 1583.07
-19.4709 3.1746 1583.07
-19.8942 3.1746 1583.07
-20.3175 3.1746 1583.07
-20.5836 3.18302 1587.27
-21.008 3.18302 1587.27
-20.9626 3.20856 1600
-21.5467 3.2 1595.73
-21.0298 3.25203 1621.68
-21.3043 3.26087 1626.09
-19.435 3.38983 1690.4
-19.887 3.38983 1690.4
-19.4842 3.4384 1714.61
-19.5965 3.45821 1724.5
-19.3586 3.49854 1744.61
-19.115 3.53982 1765.19
-19.2285 3.56083 1775.67
-18.6103 3.62538 1807.85
-18.9091 3.63636 1813.33
-18.0805 3.71517 1852.63
-18.3851 3.72671 1858.39
-17.918 3.78549 1887.7
-18.2278 3.79747 1893.67
-18.5397 3.80952 1899.68
-19.0476 3.80952 1899.68
-19.5556 3.80952 1899.68
-20.0635 3.80952 1899.68
-20.7595 3.79747 1893.67
-21.2658 3.79747 1893.67
-21.7722 3.79747 1893.67
-22.2785 3.79747 1893.67
-22.9653 3.78549 1887.7
-23.6478 3.77358 1881.76
-24.1509 3.77358 1881.76
-24.8276 3.76176 1875.86
-25.5 3.75 1870
-27.4772 3.64742 1818.84
-28.1212 3.63636 1813.33
-28.7613 3.62538 1807.85
-29.2447 3.62538 1807.85
-30.03 3.6036 1797
-30.6587 3.59281 1791.62
-31.2836 3.58209 1786.27
-31.7612 3.58209 1786.27
-32.381 3.57143 1780.95
-32.8571 3.57143 1780.95
-33.3333 3.57143 1780.95
-33.9466 3.56083 1775.67
-34.4214 3.56083 1775.67
-34.8961 3.56083 1775.67
-35.3709 3.56083 1775.67
-35.8457 3.56083 1775.67
-36.4497 3.5503 1770.41
-36.9231 3.5503 1770.41
-37.3964 3.5503 1770.41
-37.8698 3.5503 1770.41
-38.3432 3.5503 1770.41
-38.8166 3.5503 1770.41
-39.2899 3.5503 1770.41
-39.7633 3.5503 1770.41
-40.2367 3.5503 1770.41
-40.7101 3.5503 1770.41
-41.1834 3.5503 1770.41
-41.6568 3.5503 1770.41
-42.1302 3.5503 1770.41
-42.6036 3.5503 1770.41
-43.0769 3.5503 1770.41
-43.5503 3.5503 1770.41
-44.0237 3.5503 1770.41
-44.497 3.5503 1770.41
-44.9704 3.5503 1770.41
-45.4438 3.5503 1770.41
-45.9172 3.5503 1770.41
-46.3905 3.5503 1770.41
-46.8639 3.5503 1770.41
-47.3373 3.5503 1770.41
-47.8107 3.5503 1770.41
-48.284 3.5503 1770.41
-48.7574 3.5503 1770.41
-49.2308 3.5503 1770.41
-49.7041 3.5503 1770.41
-50.089 3.56083 1775.67
-50.5638 3.56083 1775.67
-51.0386 3.56083 1775.67
-51.5134 3.56083 1775.67
-51.9881 3.56083 1775.67
-52.4629 3.56083 1775.67
-52.9377 3.56083 1775.67
-53.3333 3.57143 1780.95
-53.8095 3.57143 1780.95
-54.362 3.56083 1775.67
-54.9853 3.53982 1765.19
-55.3846 3.5503 1770.41
-56.2099 3.49854 1744.61
-56.8786 3.46821 1729.48
-57.341 3.46821 1729.48
-58.0571 3.42857 1709.71
-58.6364 3.40909 1700
-59.209 3.38983 1690.4
-59.7183 3.38028 1685.63
-60.7123 3.28767 1639.45
-61.355 3.25203 1621.68
-61.7391 3.26087 1626.09
-62.6455 3.1746 1583.07
-63.2898 3.13316 1562.4
-63.7076 3.13316 1562.4
-64.1667 3.125 1558.33
-64.5833 3.125 1558.33
-65 3.125 1558.33
-65.3786 3.13316 1562.4
-65.4933 3.2 1595.73
-66.1053 3.15789 1574.74
-66.3467 3.2 1595.73
-66.2222 3.33333 1662.22
-66.6295 3.34262 1666.85
-66.9296 3.38028 1685.63
-67.3446 3.38983 1690.4
-67.7273 3.40909 1700
-67 3.75 1870
-67.2611 3.82166 1905.73
-67.1141 4.02685 2008.05
-67.3973 4.10959 2049.32
-67.3381 4.31655 2152.52
-67.3208 4.5283 2258.11
-66.9388 4.89796 2442.45
-67.4897 4.93827 2462.55
-67.6923 5.12821 2557.26
-68.0702 5.26316 2624.56
-70.3396 4.5283 2258.11
-71.1111 4.44444 2216.3
-72.1404 4.21053 2099.65
-72.9252 4.08163 2035.37
-73.8065 3.87097 1930.32
-74.359 3.84615 1917.95
-74.8882 3.83387 1911.82
-75.4286 3.80952 1899.68
-75.9365 3.80952 1899.68
-76.4444 3.80952 1899.68
-76.9524 3.80952 1899.68
-77.4522 3.82166 1905.73
-77.9618 3.82166 1905.73
-78.4713 3.82166 1905.73
-78.9809 3.82166 1905.73
-79.4904 3.82166 1905.73
-80 3.82166 1905.73
-80.5096 3.82166 1905.73
-81.0191 3.82166 1905.73
-81.5287 3.82166 1905.73
-82.0382 3.82166 1905.73
-82.5478 3.82166 1905.73
-83.0573 3.82166 1905.73
-83.5669 3.82166 1905.73
-84.0635 3.80952 1899.68
-84.5714 3.80952 1899.68
-85.0955 3.82166 1905.73
-85.5873 3.80952 1899.68
-86.0952 3.80952 1899.68
-86.5823 3.79747 1893.67
-87.0886 3.79747 1893.67
-87.5949 3.79747 1893.67
-88.0503 3.77358 1881.76
-88.5535 3.77358 1881.76
-88.972 3.73832 1864.17
-89.4704 3.73832 1864.17
-89.9071 3.71517 1852.63
-90.3385 3.69231 1841.23
-90.8308 3.69231 1841.23
-91.3231 3.69231 1841.23
-91.7791 3.68098 1835.58
-92.2324 3.66972 1829.97
-92.7217 3.66972 1829.97
-93.211 3.66972 1829.97
-93.7003 3.66972 1829.97
-94.1896 3.66972 1829.97
-94.6341 3.65854 1824.39
-95.122 3.65854 1824.39
-95.6098 3.65854 1824.39
-96.0976 3.65854 1824.39
-96.5854 3.65854 1824.39
-97.0213 3.64742 1818.84
-97.5076 3.64742 1818.84
-97.9939 3.64742 1818.84
-98.4242 3.63636 1813.33
-98.9091 3.63636 1813.33
-99.3939 3.63636 1813.33
-99.8788 3.63636 1813.33
-100.302 3.62538 1807.85
-100.785 3.62538 1807.85
-101.269 3.62538 1807.85
-101.752 3.62538 1807.85
-102.236 3.62538 1807.85
-102.651 3.61446 1802.41
-103.133 3.61446 1802.41
-103.614 3.61446 1802.41
-104.096 3.61446 1802.41
-104.578 3.61446 1802.41
-105.06 3.61446 1802.41
-105.542 3.61446 1802.41
-106.024 3.61446 1802.41
-106.426 3.6036 1797
-106.907 3.6036 1797
-107.387 3.6036 1797
-107.868 3.6036 1797
-108.348 3.6036 1797
-108.743 3.59281 1791.62
-109.222 3.59281 1791.62
-109.701 3.59281 1791.62
-110.18 3.59281 1791.62
-110.659 3.59281 1791.62
-111.138 3.59281 1791.62
-111.617 3.59281 1791.62
-112.096 3.59281 1791.62
-112.575 3.59281 1791.62
-113.054 3.59281 1791.62
-113.433 3.58209 1786.27
-113.91 3.58209 1786.27
-114.388 3.58209 1786.27
-114.866 3.58209 1786.27
-115.343 3.58209 1786.27
-115.821 3.58209 1786.27
-116.19 3.57143 1780.95
-116.667 3.57143 1780.95
-117.143 3.57143 1780.95
-117.507 3.56083 1775.67
-117.982 3.56083 1775.67
-118.457 3.56083 1775.67
-118.817 3.5503 1770.41
-119.29 3.5503 1770.41
-119.763 3.5503 1770.41
-120.237 3.5503 1770.41
-120.59 3.53982 1765.19
-121.062 3.53982 1765.19
-121.534 3.53982 1765.19
-122.006 3.53982 1765.19
-122.478 3.53982 1765.19
-122.95 3.53982 1765.19
-123.422 3.53982 1765.19
-124.024 3.5503 1770.41
-124.497 3.5503 1770.41
-124.97 3.5503 1770.41
-125.579 3.56083 1775.67
-126.053 3.56083 1775.67
-126.528 3.56083 1775.67
-127.003 3.56083 1775.67
-127.478 3.56083 1775.67
-127.953 3.56083 1775.67
-128.427 3.56083 1775.67
-128.902 3.56083 1775.67
-129.377 3.56083 1775.67
-129.852 3.56083 1775.67
-130.326 3.56083 1775.67
-130.801 3.56083 1775.67
-131.276 3.56083 1775.67
-131.751 3.56083 1775.67
-132.226 3.56083 1775.67
-132.7 3.56083 1775.67
-133.175 3.56083 1775.67
-133.65 3.56083 1775.67
-134.125 3.56083 1775.67
-134.599 3.56083 1775.67
-135.074 3.56083 1775.67
-135.549 3.56083 1775.67
-136.024 3.56083 1775.67
-136.499 3.56083 1775.67
-136.973 3.56083 1775.67
-137.448 3.56083 1775.67
-137.923 3.56083 1775.67
-138.398 3.56083 1775.67
-138.872 3.56083 1775.67
-139.347 3.56083 1775.67
-139.822 3.56083 1775.67
-140.476 3.57143 1780.95
-140.952 3.57143 1780.95
-141.429 3.57143 1780.95
-141.905 3.57143 1780.95
-142.381 3.57143 1780.95
-142.857 3.57143 1780.95
-143.333 3.57143 1780.95
-143.81 3.57143 1780.95
-144.286 3.57143 1780.95
-144.762 3.57143 1780.95
-145.238 3.57143 1780.95
-145.714 3.57143 1780.95
-146.19 3.57143 1780.95
-146.667 3.57143 1780.95
-147.143 3.57143 1780.95
-147.619 3.57143 1780.95
-148.095 3.57143 1780.95
-148.571 3.57143 1780.95
-149.254 3.58209 1786.27
-149.731 3.58209 1786.27
-150.209 3.58209 1786.27
-150.687 3.58209 1786.27
-151.164 3.58209 1786.27
-151.642 3.58209 1786.27
-152.119 3.58209 1786.27
-152.597 3.58209 1786.27
-153.075 3.58209 1786.27
-153.552 3.58209 1786.27
-154.03 3.58209 1786.27
-154.507 3.58209 1786.27
-154.985 3.58209 1786.27
-155.463 3.58209 1786.27
-155.94 3.58209 1786.27
-156.647 3.59281 1791.62
-157.126 3.59281 1791.62
-157.605 3.59281 1791.62
-158.084 3.59281 1791.62
-158.563 3.59281 1791.62
-159.042 3.59281 1791.62
-159.76 3.6036 1797
-160.24 3.6036 1797
-160.964 3.61446 1802.41
-161.446 3.61446 1802.41
-162.175 3.62538 1807.85
-162.659 3.62538 1807.85
-163.394 3.63636 1813.33
-164.39 3.65854 1824.39
-164.878 3.65854 1824.39
-165.627 3.66972 1829.97
-166.38 3.68098 1835.58
-167.678 3.71517 1852.63
-169 3.75 1870
-169.5 3.75 1870
-170 3.75 1870
-171.069 3.77358 1881.76
-171.572 3.77358 1881.76
-172.366 3.78549 1887.7
-172.871 3.78549 1887.7
-173.375 3.78549 1887.7
-174.177 3.79747 1893.67
-174.684 3.79747 1893.67
-175.19 3.79747 1893.67
-175.696 3.79747 1893.67
-175.899 3.78549 1887.7
-175.5 3.75 1870
-175.404 3.72671 1858.39
-175.604 3.71517 1852.63
-174.061 3.63636 1813.33
-170.698 3.48837 1739.53
-170.899 3.47826 1734.49
-167.556 3.33333 1662.22
-172.903 3.51906 1754.84
-174.201 3.5503 1770.41
-176.096 3.6036 1797
-177.751 3.64742 1818.84
-180.373 3.72671 1858.39
-181.5 3.75 1870
-182.642 3.77358 1881.76
-182.821 3.76176 1875.86
-182.043 3.71517 1852.63
-184.479 3.78549 1887.7
-178.754 3.56083 1775.67
-175.543 3.42857 1709.71
-173.855 3.35196 1671.51
-173.003 3.30579 1648.48
-172.678 3.27869 1634.97
-175.73 3.37079 1680.9
-178.674 3.45821 1724.5
-181.176 3.52941 1760
21.6092 3.90805 1719.54
21.1494 3.90805 1719.54
20.6897 3.90805 1719.54
20.5187 3.91931 1724.5
20.0576 3.91931 1724.5
19.8844 3.93064 1729.48
19.422 3.93064 1729.48
19.5349 3.95349 1739.53
19.9413 3.98827 1754.84
22.4773 4.10876 1807.85
23.5583 4.17178 1835.58
25.9937 4.29022 1887.7
27.5241 4.37299 1924.12
29.4737 4.47368 1968.42
29.6689 4.50331 1981.46
29.8667 4.53333 1994.67
29.699 4.54849 2001.34
29.5302 4.56376 2008.05
28.9933 4.56376 2008.05
28.4564 4.56376 2008.05
27.5585 4.54849 2001.34
27.0234 4.54849 2001.34
26.4883 4.54849 2001.34
25.9532 4.54849 2001.34
24.7176 4.51827 1988.04
23.1579 4.47368 1968.42
21.9608 4.44444 1955.56
21.1075 4.42997 1949.19
19.2926 4.37299 1924.12
19.7403 4.41558 1942.86
18.2637 4.37299 1924.12
17.4359 4.35897 1917.95
16.9231 4.35897 1917.95
16.4103 4.35897 1917.95
15.8974 4.35897 1917.95
15.3846 4.35897 1917.95
14.8718 4.35897 1917.95
14.359 4.35897 1917.95
13.5463 4.34505 1911.82
13.0351 4.34505 1911.82
12.524 4.34505 1911.82
12.0128 4.34505 1911.82
11.5016 4.34505 1911.82
10.9904 4.34505 1911.82
10.4792 4.34505 1911.82
9.96805 4.34505 1911.82
9.45687 4.34505 1911.82
8.94569 4.34505 1911.82
8.4345 4.34505 1911.82
7.92332 4.34505 1911.82
7.41214 4.34505 1911.82
6.90096 4.34505 1911.82
6.38978 4.34505 1911.82
5.87859 4.34505 1911.82
5.64103 4.35897 1917.95
5.12821 4.35897 1917.95
4.61538 4.35897 1917.95
4.10256 4.35897 1917.95
3.58974 4.35897 1917.95
2.8115 4.34505 1911.82
2.03822 4.33121 1905.73
1.01266 4.3038 1893.67
1.53846 4.35897 1917.95
-2.21538 4.18462 1841.23
-3.87879 4.12121 1813.33
-3.66972 4.15902 1829.97
-10.1408 3.83099 1685.63
-10.5915 3.83099 1685.63
-13.6585 3.68564 1621.68
-14.9733 3.63636 1600
-15.4011 3.63636 1600
-16.3395 3.60743 1587.27
-16.7639 3.60743 1587.27
-17.1883 3.60743 1587.27
-17.6127 3.60743 1587.27
-18.2011 3.59788 1583.07
-18.6243 3.59788 1583.07
-19.0476 3.59788 1583.07
-19.4709 3.59788 1583.07
-19.8942 3.59788 1583.07
-20.1592 3.60743 1587.27
-20.5836 3.60743 1587.27
-21.008 3.60743 1587.27
-21.4324 3.60743 1587.27
-21.5467 3.62667 1595.73
-20.5464 3.71585 1634.97
-21.6216 3.67568 1617.3
-20.7735 3.75691 1653.04
-19.5455 3.86364 1700
-20 3.86364 1700
-20.1143 3.88571 1709.71
-19.8844 3.93064 1729.48
-19.8251 3.96501 1744.61
-19.587 4.0118 1765.19
-19.3433 4.0597 1786.27
-18.7234 4.13374 1818.84
-18.4615 4.18462 1841.23
-18.5759 4.21053 1852.63
-17.918 4.29022 1887.7
-18.2278 4.3038 1893.67
-18.5397 4.31746 1899.68
-19.0476 4.31746 1899.68
-19.5556 4.31746 1899.68
-20.2532 4.3038 1893.67
-20.7595 4.3038 1893.67
-21.2658 4.3038 1893.67
-21.7722 4.3038 1893.67
-22.4606 4.29022 1887.7
-23.1447 4.27673 1881.76
-23.6478 4.27673 1881.76
-24.326 4.26332 1875.86
-25 4.25 1870
-26.8293 4.14634 1824.39
-27.6364 4.12121 1813.33
-28.2779 4.10876 1807.85
-28.7613 4.10876 1807.85
-29.3976 4.09639 1802.41
-30.03 4.08408 1797
-30.6587 4.07186 1791.62
-31.2836 4.0597 1786.27
-31.7612 4.0597 1786.27
-32.381 4.04762 1780.95
-32.8571 4.04762 1780.95
-33.3333 4.04762 1780.95
-33.9466 4.03561 1775.67
-34.4214 4.03561 1775.67
-34.8961 4.03561 1775.67
-35.3709 4.03561 1775.67
-35.8457 4.03561 1775.67
-36.4497 4.02367 1770.41
-36.9231 4.02367 1770.41
-37.3964 4.02367 1770.41
-37.8698 4.02367 1770.41
-38.3432 4.02367 1770.41
-38.8166 4.02367 1770.41
-39.2899 4.02367 1770.41
-39.7633 4.02367 1770.41
-40.2367 4.02367 1770.41
-40.7101 4.02367 1770.41
-41.1834 4.02367 1770.41
-41.6568 4.02367 1770.41
-42.1302 4.02367 1770.41
-42.6036 4.02367 1770.41
-43.0769 4.02367 1770.41
-43.5503 4.02367 1770.41
-44.0237 4.02367 1770.41
-44.497 4.02367 1770.41
-44.9704 4.02367 1770.41
-45.4438 4.02367 1770.41
-45.9172 4.02367 1770.41
-46.3905 4.02367 1770.41
-46.8639 4.02367 1770.41
-47.3373 4.02367 1770.41
-47.8107 4.02367 1770.41
-48.284 4.02367 1770.41
-48.7574 4.02367 1770.41
-49.2308 4.02367 1770.41
-49.7041 4.02367 1770.41
-50.1775 4.02367 1770.41
-50.5638 4.03561 1775.67
-51.0386 4.03561 1775.67
-51.5134 4.03561 1775.67
-51.9881 4.03561 1775.67
-52.4629 4.03561 1775.67
-52.9377 4.03561 1775.67
-53.4125 4.03561 1775.67
-53.8872 4.03561 1775.67
-54.4379 4.02367 1770.41
-54.9112 4.02367 1770.41
-55.7434 3.96501 1744.61
-56.3478 3.94203 1734.49
-56.8786 3.93064 1729.48
-57.6 3.88571 1709.71
-58.2436 3.85269 1695.18
-58.9356 3.80952 1676.19
-59.7245 3.74656 1648.48
-60.3815 3.70572 1630.52
-60.9214 3.68564 1621.68
-61.3043 3.69565 1626.09
-61.9839 3.64611 1604.29
-62.7822 3.56955 1570.6
-63.2461 3.56021 1566.49
-63.75 3.54167 1558.33
-64.1667 3.54167 1558.33
-64.6234 3.53247 1554.29
-65.039 3.53247 1554.29
-65.3786 3.55091 1562.4
-65.7963 3.55091 1562.4
-65.9947 3.60743 1587.27
-66.5263 3.57895 1574.74
-66.6667 3.65591 1608.6
-66.7769 3.74656 1648.48
-67.1111 3.77778 1662.22
-67.451 3.80952 1676.19
-67.4783 3.94203 1734.49
-67.5449 4.07186 1791.62
-67.5776 4.2236 1858.39
-67.2 4.53333 1994.67
-67.651 4.56376 2008.05
-67.2 4.94545 2176
-67.3208 5.13208 2258.11
-67.1486 5.46185 2403.21
-67.3333 5.66667 2493.33
-67.6923 5.81197 2557.26
-68.3262 5.83691 2568.24
-69.76 5.44 2393.6
-70.7692 5.23077 2301.54
-72.6316 4.47368 1968.42
-73.2248 4.42997 1949.19
-73.7864 4.40129 1936.57
-74.359 4.35897 1917.95
-74.9206 4.31746 1899.68
-75.4286 4.31746 1899.68
-75.9365 4.31746 1899.68
-76.4444 4.31746 1899.68
-76.9524 4.31746 1899.68
-77.4603 4.31746 1899.68
-77.9618 4.33121 1905.73
-78.4713 4.33121 1905.73
-78.9809 4.33121 1905.73
-79.4904 4.33121 1905.73
-80 4.33121 1905.73
-80.5096 4.33121 1905.73
-81.0191 4.33121 1905.73
-81.5287 4.33121 1905.73
-82.0382 4.33121 1905.73
-82.5478 4.33121 1905.73
-83.0573 4.33121 1905.73
-83.5556 4.31746 1899.68
-84.0635 4.31746 1899.68
-84.5714 4.31746 1899.68
-85.0794 4.31746 1899.68
-85.5873 4.31746 1899.68
-86.0952 4.31746 1899.68
-86.5823 4.3038 1893.67
-87.0886 4.3038 1893.67
-87.571 4.29022 1887.7
-88.0251 4.26332 1875.86
-88.4735 4.23676 1864.17
-88.9164 4.21053 1852.63
-89.4118 4.21053 1852.63
-89.9071 4.21053 1852.63
-90.3385 4.18462 1841.23
-90.8308 4.18462 1841.23
-91.2883 4.17178 1835.58
-91.7431 4.15902 1829.97
-92.2324 4.15902 1829.97
-92.7217 4.15902 1829.97
-93.211 4.15902 1829.97
-93.6585 4.14634 1824.39
-94.1463 4.14634 1824.39
-94.6341 4.14634 1824.39
-95.122 4.14634 1824.39
-95.6098 4.14634 1824.39
-96.0976 4.14634 1824.39
-96.5854 4.14634 1824.39
-97.0213 4.13374 1818.84
-97.5076 4.13374 1818.84
-97.9939 4.13374 1818.84
-98.4242 4.12121 1813.33
-98.9091 4.12121 1813.33
-99.3939 4.12121 1813.33
-99.8187 4.10876 1807.85
-100.302 4.10876 1807.85
-100.785 4.10876 1807.85
-101.269 4.10876 1807.85
-101.687 4.09639 1802.41
-102.169 4.09639 1802.41
-102.651 4.09639 1802.41
-103.133 4.09639 1802.41
-103.614 4.09639 1802.41
-104.096 4.09639 1802.41
-104.578 4.09639 1802.41
-105.06 4.09639 1802.41
-105.465 4.08408 1797
-105.946 4.08408 1797
-106.426 4.08408 1797
-106.907 4.08408 1797
-107.387 4.08408 1797
-107.868 4.08408 1797
-108.263 4.07186 1791.62
-108.743 4.07186 1791.62
-109.222 4.07186 1791.62
-109.701 4.07186 1791.62
-110.18 4.07186 1791.62
-110.659 4.07186 1791.62
-111.138 4.07186 1791.62
-111.617 4.07186 1791.62
-112.096 4.07186 1791.62
-112.575 4.07186 1791.62
-112.955 4.0597 1786.27
-113.433 4.0597 1786.27
-113.91 4.0597 1786.27
-114.388 4.0597 1786.27
-114.866 4.0597 1786.27
-115.238 4.04762 1780.95
-115.714 4.04762 1780.95
-116.19 4.04762 1780.95
-116.667 4.04762 1780.95
-117.033 4.03561 1775.67
-117.507 4.03561 1775.67
-117.982 4.03561 1775.67
-118.343 4.02367 1770.41
-118.817 4.02367 1770.41
-119.29 4.02367 1770.41
-119.646 4.0118 1765.19
-120.118 4.0118 1765.19
-120.59 4.0118 1765.19
-121.062 4.0118 1765.19
-121.534 4.0118 1765.19
-122.006 4.0118 1765.19
-122.478 4.0118 1765.19
-122.95 4.0118 1765.19
-123.422 4.0118 1765.19
-123.894 4.0118 1765.19
-124.366 4.0118 1765.19
-124.97 4.02367 1770.41
-125.444 4.02367 1770.41
-126.053 4.03561 1775.67
-126.528 4.03561 1775.67
-127.003 4.03561 1775.67
-127.478 4.03561 1775.67
-127.953 4.03561 1775.67
-128.427 4.03561 1775.67
-128.902 4.03561 1775.67
-129.377 4.03561 1775.67
-129.852 4.03561 1775.67
-130.326 4.03561 1775.67
-130.801 4.03561 1775.67
-131.276 4.03561 1775.67
-131.751 4.03561 1775.67
-132.226 4.03561 1775.67
-132.7 4.03561 1775.67
-133.175 4.03561 1775.67
-133.65 4.03561 1775.67
-134.125 4.03561 1775.67
-134.599 4.03561 1775.67
-135.074 4.03561 1775.67
-135.549 4.03561 1775.67
-136.024 4.03561 1775.67
-136.499 4.03561 1775.67
-136.973 4.03561 1775.67
-137.448 4.03561 1775.67
-137.923 4.03561 1775.67
-138.398 4.03561 1775.67
-138.872 4.03561 1775.67
-139.347 4.03561 1775.67
-139.822 4.03561 1775.67
-140.297 4.03561 1775.67
-140.772 4.03561 1775.67
-141.246 4.03561 1775.67
-141.905 4.04762 1780.95
-142.381 4.04762 1780.95
-142.857 4.04762 1780.95
-143.333 4.04762 1780.95
-143.81 4.04762 1780.95
-144.286 4.04762 1780.95
-144.762 4.04762 1780.95
-145.238 4.04762 1780.95
-145.714 4.04762 1780.95
-146.19 4.04762 1780.95
-146.667 4.04762 1780.95
-147.143 4.04762 1780.95
-147.619 4.04762 1780.95
-148.095 4.04762 1780.95
-148.571 4.04762 1780.95
-149.048 4.04762 1780.95
-149.524 4.04762 1780.95
-150.209 4.0597 1786.27
-150.687 4.0597 1786.27
-151.164 4.0597 1786.27
-151.642 4.0597 1786.27
-152.119 4.0597 1786.27
-152.597 4.0597 1786.27
-153.075 4.0597 1786.27
-153.552 4.0597 1786.27
-154.03 4.0597 1786.27
-154.507 4.0597 1786.27
-154.985 4.0597 1786.27
-155.463 4.0597 1786.27
-155.94 4.0597 1786.27
-156.418 4.0597 1786.27
-157.126 4.07186 1791.62
-157.605 4.07186 1791.62
-158.084 4.07186 1791.62
-158.563 4.07186 1791.62
-159.042 4.07186 1791.62
-159.76 4.08408 1797
-160.24 4.08408 1797
-160.964 4.09639 1802.41
-161.446 4.09639 1802.41
-162.175 4.10876 1807.85
-162.659 4.10876 1807.85
-163.394 4.12121 1813.33
-163.879 4.12121 1813.33
-164.878 4.14634 1824.39
-165.366 4.14634 1824.39
-165.593 4.13374 1818.84
-166.871 4.17178 1835.58
-168.447 4.2236 1858.39
-168.395 4.19753 1846.91
-170 4.25 1870
-170.784 4.26332 1875.86
-171.572 4.27673 1881.76
-172.366 4.29022 1887.7
-172.871 4.29022 1887.7
-173.375 4.29022 1887.7
-174.177 4.3038 1893.67
-174.684 4.3038 1893.67
-175.19 4.3038 1893.67
-175.696 4.3038 1893.67
-175.597 4.27673 1881.76
-175.5 4.25 1870
-175.108 4.21053 1852.63
-174.724 4.17178 1835.58
-173.776 4.10876 1807.85
-168.889 3.87464 1704.84
-168.839 3.85269 1695.18
-169.292 3.85269 1695.18
-170.774 3.89685 1714.61
-172.29 3.94203 1734.49
-175.522 4.0597 1786.27
-177.16 4.10876 1807.85
-180.062 4.21053 1852.63
-181.5 4.25 1870
-182.642 4.27673 1881.76
-183.145 4.27673 1881.76
-182.36 4.2236 1858.39
-182.539 4.21053 1852.63
-180.544 4.10876 1807.85
-175.817 3.89685 1714.61
-174.648 3.83099 1685.63
-173.518 3.76731 1657.62
-173.702 3.75691 1653.04
-174.93 3.7883 1666.85
-178.674 3.91931 1724.5
-181.176 4 1760
21.6092 4.36782 1719.54
21.1494 4.36782 1719.54
20.9798 4.3804 1724.5
20.5187 4.3804 1724.5
20.0576 4.3804 1724.5
19.8844 4.39306 1729.48
19.7101 4.4058 1734.49
21.6024 4.51039 1775.67
19.9413 4.45748 1754.84
19.7647 4.47059 1760
27.1746 4.8254 1899.68
27.6923 4.87179 1917.95
29.281 4.96732 1955.56
29.835 5.0165 1974.92
29.6689 5.03311 1981.46
29.8667 5.06667 1994.67
29.699 5.08361 2001.34
29.5302 5.10067 2008.05
28.9933 5.10067 2008.05
28.4564 5.10067 2008.05
27.5585 5.08361 2001.34
27.0234 5.08361 2001.34
26.1333 5.06667 1994.67
25.9532 5.08361 2001.34
25.0667 5.06667 1994.67
22.8197 4.98361 1961.97
21.9608 4.96732 1955.56
21.1075 4.95114 1949.19
19.2926 4.88746 1924.12
19.0968 4.90323 1930.32
18.2637 4.88746 1924.12
17.4359 4.87179 1917.95
16.9231 4.87179 1917.95
16.4103 4.87179 1917.95
15.8974 4.87179 1917.95
15.3846 4.87179 1917.95
14.8718 4.87179 1917.95
14.359 4.87179 1917.95
13.5463 4.85623 1911.82
13.0351 4.85623 1911.82
12.524 4.85623 1911.82
12.0128 4.85623 1911.82
11.5016 4.85623 1911.82
10.9904 4.85623 1911.82
10.4792 4.85623 1911.82
9.96805 4.85623 1911.82
9.45687 4.85623 1911.82
8.94569 4.85623 1911.82
8.4345 4.85623 1911.82
7.92332 4.85623 1911.82
7.41214 4.85623 1911.82
6.90096 4.85623 1911.82
6.38978 4.85623 1911.82
5.87859 4.85623 1911.82
5.64103 4.87179 1917.95
5.12821 4.87179 1917.95
4.61538 4.87179 1917.95
4.10256 4.87179 1917.95
3.32268 4.85623 1911.82
3.07692 4.87179 1917.95
2.30032 4.85623 1911.82
0.503145 4.77987 1881.76
-0.250784 4.76489 1875.86
-2.45399 4.66258 1835.58
-2.70769 4.67692 1841.23
-8.27586 4.36782 1719.54
-10.7263 4.24581 1671.51
-13.2249 4.11924 1621.68
-13.4783 4.13043 1626.09
-14.4474 4.09704 1612.94
-15.5733 4.05333 1595.73
-16.3395 4.03183 1587.27
-16.7639 4.03183 1587.27
-17.1883 4.03183 1587.27
-17.6127 4.03183 1587.27
-18.2011 4.02116 1583.07
-18.4615 4.03183 1587.27
-19.0476 4.02116 1583.07
-19.3103 4.03183 1587.27
-19.8942 4.02116 1583.07
-20.1592 4.03183 1587.27
-20.5836 4.03183 1587.27
-20.6933 4.05333 1595.73
-21.2766 4.04255 1591.49
-21.0753 4.08602 1608.6
-21.1892 4.10811 1617.3
-21.6216 4.10811 1617.3
-21.2603 4.16438 1639.45
-20.2247 4.26966 1680.9
-20.507 4.28169 1685.63
-20.4545 4.31818 1700
-20.4011 4.3553 1714.61
-20.6897 4.36782 1719.54
-20.4651 4.4186 1739.53
-21.1014 4.4058 1734.49
-20.7059 4.47059 1760
-18.6503 4.66258 1835.58
-19.696 4.62006 1818.84
-18.1132 4.77987 1881.76
-18.2278 4.81013 1893.67
-18.5397 4.8254 1899.68
-19.0476 4.8254 1899.68
-19.5556 4.8254 1899.68
-20.0635 4.8254 1899.68
-20.5714 4.8254 1899.68
-21.2658 4.81013 1893.67
-21.7722 4.81013 1893.67
-22.4606 4.79495 1887.7
-23.1447 4.77987 1881.76
-23.6478 4.77987 1881.76
-24.326 4.76489 1875.86
-25.1713 4.7352 1864.17
-27.1515 4.60606 1813.33
-27.6364 4.60606 1813.33
-28.2779 4.59215 1807.85
-28.9157 4.57831 1802.41
-29.5495 4.56456 1797
-30.1796 4.5509 1791.62
-30.806 4.53731 1786.27
-31.2836 4.53731 1786.27
-31.7612 4.53731 1786.27
-32.381 4.52381 1780.95
-32.8571 4.52381 1780.95
-33.3333 4.52381 1780.95
-33.9466 4.51039 1775.67
-34.4214 4.51039 1775.67
-34.8961 4.51039 1775.67
-35.3709 4.51039 1775.67
-35.8457 4.51039 1775.67
-36.4497 4.49704 1770.41
-36.9231 4.49704 1770.41
-37.3964 4.49704 1770.41
-37.8698 4.49704 1770.41
-38.3432 4.49704 1770.41
-38.8166 4.49704 1770.41
-39.2899 4.49704 1770.41
-39.7633 4.49704 1770.41
-40.2367 4.49704 1770.41
-40.7101 4.49704 1770.41
-41.1834 4.49704 1770.41
-41.6568 4.49704 1770.41
-42.1302 4.49704 1770.41
-42.6036 4.49704 1770.41
-43.0769 4.49704 1770.41
-43.5503 4.49704 1770.41
-44.0237 4.49704 1770.41
-44.497 4.49704 1770.41
-44.9704 4.49704 1770.41
-45.4438 4.49704 1770.41
-45.9172 4.49704 1770.41
-46.3905 4.49704 1770.41
-46.8639 4.49704 1770.41
-47.3373 4.49704 1770.41
-47.8107 4.49704 1770.41
-48.284 4.49704 1770.41
-48.7574 4.49704 1770.41
-49.2308 4.49704 1770.41
-49.7041 4.49704 1770.41
-50.1775 4.49704 1770.41
-50.5638 4.51039 1775.67
-51.0386 4.51039 1775.67
-51.5134 4.51039 1775.67
-52.071 4.49704 1770.41
-52.5444 4.49704 1770.41
-53.0178 4.49704 1770.41
-53.4911 4.49704 1770.41
-54.0413 4.48378 1765.19
-54.5133 4.48378 1765.19
-55.2047 4.44444 1749.71
-55.6725 4.44444 1749.71
-56.6189 4.3553 1714.61
-57.1429 4.34286 1709.71
-57.8531 4.29379 1690.4
-58.5475 4.24581 1671.51
-58.8764 4.26966 1680.9
-59.4986 4.23398 1666.85
-60.3815 4.14169 1630.52
-60.9214 4.11924 1621.68
-61.2534 4.14169 1630.52
-61.7886 4.11924 1621.68
-62.3656 4.08602 1608.6
-62.8877 4.06417 1600
-63.75 3.95833 1558.33
-64.2078 3.94805 1554.29
-64.6632 3.93782 1550.26
-65.0777 3.93782 1550.26
-65.4545 3.94805 1554.29
-65.8701 3.94805 1554.29
-66.178 3.97906 1566.49
-66.5617 3.9895 1570.6
-66.8783 4.02116 1583.07
-66.921 4.14169 1630.52
-67.2176 4.18733 1648.48
-67.5556 4.22222 1662.22
-67.8992 4.2577 1676.19
-68.0802 4.3553 1714.61
-67.2204 4.85623 1911.82
-67.2848 5.03311 1981.46
-67.354 5.22337 2056.36
-67.5177 5.39007 2121.99
-67.3684 5.71429 2249.62
-67.451 5.96078 2346.67
-67.6423 6.17886 2432.52
-68.0992 6.28099 2472.73
-68.9431 6.17886 2432.52
-70.303 5.75758 2266.67
-70.8046 5.82375 2292.72
-72.1404 5.33333 2099.65
-73.0435 5.08361 2001.34
-73.7049 4.98361 1961.97
-74.3949 4.84076 1905.73
-74.9206 4.8254 1899.68
-75.4286 4.8254 1899.68
-75.9365 4.8254 1899.68
-76.4444 4.8254 1899.68
-76.9524 4.8254 1899.68
-77.4603 4.8254 1899.68
-77.9683 4.8254 1899.68
-78.4762 4.8254 1899.68
-78.9809 4.84076 1905.73
-79.4904 4.84076 1905.73
-80 4.84076 1905.73
-80.5096 4.84076 1905.73
-81.0191 4.84076 1905.73
-81.5287 4.84076 1905.73
-82.0382 4.84076 1905.73
-82.5478 4.84076 1905.73
-83.0476 4.8254 1899.68
-83.5556 4.8254 1899.68
-84.0635 4.8254 1899.68
-84.5714 4.8254 1899.68
-85.0794 4.8254 1899.68
-85.5696 4.81013 1893.67
-86.0759 4.81013 1893.67
-86.5823 4.81013 1893.67
-87.0886 4.81013 1893.67
-87.571 4.79495 1887.7
-87.9751 4.7352 1864.17
-88.4211 4.70588 1852.63
-88.9164 4.70588 1852.63
-89.4118 4.70588 1852.63
-89.8462 4.67692 1841.23
-90.3385 4.67692 1841.23
-90.7975 4.66258 1835.58
-91.2883 4.66258 1835.58
-91.7431 4.64832 1829.97
-92.2324 4.64832 1829.97
-92.7217 4.64832 1829.97
-93.211 4.64832 1829.97
-93.6585 4.63415 1824.39
-94.1463 4.63415 1824.39
-94.6341 4.63415 1824.39
-95.122 4.63415 1824.39
-95.6098 4.63415 1824.39
-96.0486 4.62006 1818.84
-96.535 4.62006 1818.84
-97.0213 4.62006 1818.84
-97.5076 4.62006 1818.84
-97.9394 4.60606 1813.33
-98.4242 4.60606 1813.33
-98.9091 4.60606 1813.33
-99.3353 4.59215 1807.85
-99.8187 4.59215 1807.85
-100.241 4.57831 1802.41
-100.785 4.59215 1807.85
-101.205 4.57831 1802.41
-101.687 4.57831 1802.41
-102.169 4.57831 1802.41
-102.651 4.57831 1802.41
-103.133 4.57831 1802.41
-103.614 4.57831 1802.41
-104.096 4.57831 1802.41
-104.578 4.57831 1802.41
-105.06 4.57831 1802.41
-105.465 4.56456 1797
-105.946 4.56456 1797
-106.426 4.56456 1797
-106.907 4.56456 1797
-107.387 4.56456 1797
-107.784 4.5509 1791.62
-108.263 4.5509 1791.62
-108.743 4.5509 1791.62
-109.222 4.5509 1791.62
-109.701 4.5509 1791.62
-110.18 4.5509 1791.62
-110.567 4.53731 1786.27
-111.138 4.5509 1791.62
-111.617 4.5509 1791.62
-112.096 4.5509 1791.62
-112.478 4.53731 1786.27
-112.955 4.53731 1786.27
-113.433 4.53731 1786.27
-113.91 4.53731 1786.27
-114.388 4.53731 1786.27
-114.762 4.52381 1780.95
-115.238 4.52381 1780.95
-115.714 4.52381 1780.95
-116.19 4.52381 1780.95
-116.558 4.51039 1775.67
-117.033 4.51039 1775.67
-117.507 4.51039 1775.67
-117.982 4.51039 1775.67
-118.343 4.49704 1770.41
-118.702 4.48378 1765.19
-119.174 4.48378 1765.19
-119.646 4.48378 1765.19
-120.118 4.48378 1765.19
-120.59 4.48378 1765.19
-121.062 4.48378 1765.19
-121.534 4.48378 1765.19
-122.006 4.48378 1765.19
-122.478 4.48378 1765.19
-122.95 4.48378 1765.19
-123.422 4.48378 1765.19
-123.894 4.48378 1765.19
-124.497 4.49704 1770.41
-124.97 4.49704 1770.41
-125.444 4.49704 1770.41
-125.917 4.49704 1770.41
-126.528 4.51039 1775.67
-127.003 4.51039 1775.67
-127.478 4.51039 1775.67
-127.953 4.51039 1775.67
-128.427 4.51039 1775.67
-128.902 4.51039 1775.67
-129.377 4.51039 1775.67
-129.852 4.51039 1775.67
-130.326 4.51039 1775.67
-130.801 4.51039 1775.67
-131.276 4.51039 1775.67
-131.751 4.51039 1775.67
-132.226 4.51039 1775.67
-132.7 4.51039 1775.67
-133.175 4.51039 1775.67
-133.65 4.51039 1775.67
-133.964 4.49704 1770.41
-134.599 4.51039 1775.67
-135.074 4.51039 1775.67
-135.549 4.51039 1775.67
-136.024 4.51039 1775.67
-136.499 4.51039 1775.67
-136.973 4.51039 1775.67
-137.448 4.51039 1775.67
-137.923 4.51039 1775.67
-138.398 4.51039 1775.67
-138.872 4.51039 1775.67
-139.347 4.51039 1775.67
-139.822 4.51039 1775.67
-140.297 4.51039 1775.67
-140.772 4.51039 1775.67
-141.246 4.51039 1775.67
-141.721 4.51039 1775.67
-142.196 4.51039 1775.67
-142.857 4.52381 1780.95
-143.333 4.52381 1780.95
-143.81 4.52381 1780.95
-144.286 4.52381 1780.95
-144.762 4.52381 1780.95
-145.238 4.52381 1780.95
-145.714 4.52381 1780.95
-146.19 4.52381 1780.95
-146.667 4.52381 1780.95
-147.143 4.52381 1780.95
-147.619 4.52381 1780.95
-148.095 4.52381 1780.95
-148.571 4.52381 1780.95
-149.048 4.52381 1780.95
-149.524 4.52381 1780.95
-150.209 4.53731 1786.27
-150.476 4.52381 1780.95
-151.164 4.53731 1786.27
-151.642 4.53731 1786.27
-152.119 4.53731 1786.27
-152.597 4.53731 1786.27
-153.075 4.53731 1786.27
-153.552 4.53731 1786.27
-154.03 4.53731 1786.27
-154.507 4.53731 1786.27
-154.985 4.53731 1786.27
-155.463 4.53731 1786.27
-155.94 4.53731 1786.27
-156.418 4.53731 1786.27
-156.896 4.53731 1786.27
-157.605 4.5509 1791.62
-158.084 4.5509 1791.62
-158.563 4.5509 1791.62
-159.042 4.5509 1791.62
-159.521 4.5509 1791.62
-160.24 4.56456 1797
-160.721 4.56456 1797
-161.446 4.57831 1802.41
-161.928 4.57831 1802.41
-162.659 4.59215 1807.85
-163.142 4.59215 1807.85
-163.879 4.60606 1813.33
-164.364 4.60606 1813.33
-165.366 4.63415 1824.39
-165.854 4.63415 1824.39
-166.079 4.62006 1818.84
-167.631 4.67692 1841.23
-168.944 4.7205 1858.39
-170 4.75 1870
-170.784 4.76489 1875.86
-171.572 4.77987 1881.76
-172.366 4.79495 1887.7
-172.871 4.79495 1887.7
-173.671 4.81013 1893.67
-174.177 4.81013 1893.67
-174.684 4.81013 1893.67
-175.19 4.81013 1893.67
-175.696 4.81013 1893.67
-175.298 4.76489 1875.86
-175.5 4.75 1870
-175.108 4.70588 1852.63
-174.434 4.64832 1829.97
-173.776 4.59215 1807.85
-168.136 4.29379 1690.4
-167.843 4.2577 1676.19
-167.313 4.21053 1657.62
-169.239 4.28169 1685.63
-171.232 4.3553 1714.61
-172.754 4.4058 1734.49
-177.16 4.59215 1807.85
-179.446 4.67692 1841.23
-181.184 4.7352 1864.17
-182.32 4.76489 1875.86
-182.821 4.76489 1875.86
-183.323 4.76489 1875.86
-183.178 4.7352 1864.17
-179.94 4.56456 1797
-175.817 4.3553 1714.61
-174.382 4.26966 1680.9
-173.26 4.1989 1653.04
-172.678 4.15301 1634.97
-175.462 4.2577 1676.19
-177.273 4.31818 1700
-179.422 4.39306 1729.48
21.6092 4.82759 1719.54
21.1494 4.82759 1719.54
20.6897 4.82759 1719.54
20.5187 4.8415 1724.5
20.0576 4.8415 1724.5
19.8844 4.85549 1729.48
19.7101 4.86957 1734.49
19.8251 4.89796 1744.61
20.2353 4.94118 1760
20.059 4.95575 1765.19
22.303 5.09091 1813.33
28.3871 5.41935 1930.32
30 5.52632 1968.42
31.3043 5.61873 2001.34
30.0332 5.5814 1988.04
29.8667 5.6 1994.67
29.699 5.61873 2001.34
29.5302 5.63758 2008.05
28.9933 5.63758 2008.05
28.4564 5.63758 2008.05
27.9195 5.63758 2008.05
27.0234 5.61873 2001.34
26.4883 5.61873 2001.34
25.9532 5.61873 2001.34
25.0667 5.6 1994.67
24.5333 5.6 1994.67
21.9608 5.4902 1955.56
21.1075 5.47231 1949.19
19.2926 5.40193 1924.12
18.7781 5.40193 1924.12
18.2637 5.40193 1924.12
17.4359 5.38462 1917.95
16.9231 5.38462 1917.95
16.4103 5.38462 1917.95
15.8974 5.38462 1917.95
15.3846 5.38462 1917.95
14.8718 5.38462 1917.95
14.359 5.38462 1917.95
13.8462 5.38462 1917.95
13.0351 5.36741 1911.82
12.524 5.36741 1911.82
12.0128 5.36741 1911.82
11.5016 5.36741 1911.82
10.9904 5.36741 1911.82
10.4792 5.36741 1911.82
9.96805 5.36741 1911.82
9.45687 5.36741 1911.82
8.94569 5.36741 1911.82
8.4345 5.36741 1911.82
7.92332 5.36741 1911.82
7.41214 5.36741 1911.82
6.90096 5.36741 1911.82
6.38978 5.36741 1911.82
5.87859 5.36741 1911.82
5.36741 5.36741 1911.82
5.12821 5.38462 1917.95
4.61538 5.38462 1917.95
3.83387 5.36741 1911.82
3.58974 5.38462 1917.95
2.8115 5.36741 1911.82
1.26183 5.29968 1887.7
0.250784 5.26646 1875.86
-1.48148 5.18519 1846.91
-3.39394 5.09091 1813.33
-6.54971 4.91228 1749.71
-6.15385 4.97041 1770.41
-12.0548 4.60274 1639.45
-13.2249 4.55285 1621.68
-14.5455 4.49198 1600
-15.1467 4.48 1595.73
-15.7447 4.46809 1591.49
-16.3395 4.45623 1587.27
-16.7639 4.45623 1587.27
-17.1883 4.45623 1587.27
-17.6127 4.45623 1587.27
-18.0371 4.45623 1587.27
-18.4615 4.45623 1587.27
-18.8859 4.45623 1587.27
-19.3103 4.45623 1587.27
-19.7347 4.45623 1587.27
-20.1592 4.45623 1587.27
-20.5836 4.45623 1587.27
-20.8511 4.46809 1591.49
-20.9626 4.49198 1600
-21.5467 4.48 1595.73
-21.6622 4.50402 1604.29
-21.6216 4.54054 1617.3
-21.0989 4.61538 1643.96
-20.3922 4.70588 1676.19
-21.0056 4.69274 1671.51
-20.791 4.74576 1690.4
-21.2429 4.74576 1690.4
-21.1966 4.78632 1704.84
-20.8092 4.85549 1729.48
-21.1014 4.86957 1734.49
-20.178 4.98516 1775.67
-18.8379 5.13761 1829.97
-18.1931 5.23364 1864.17
-18.1132 5.28302 1881.76
-18.0317 5.33333 1899.68
-18.7342 5.31646 1893.67
-19.0476 5.33333 1899.68
-19.5556 5.33333 1899.68
-20.0635 5.33333 1899.68
-20.7595 5.31646 1893.67
-21.2658 5.31646 1893.67
-21.7722 5.31646 1893.67
-22.4606 5.29968 1887.7
-22.9653 5.29968 1887.7
-23.6478 5.28302 1881.76
-24.326 5.26646 1875.86
-26.5046 5.10638 1818.84
-27.1515 5.09091 1813.33
-27.7946 5.07553 1807.85
-28.4337 5.06024 1802.41
-29.0691 5.04505 1797
-29.7006 5.02994 1791.62
-30.1796 5.02994 1791.62
-30.806 5.01493 1786.27
-31.2836 5.01493 1786.27
-31.9048 5 1780.95
-32.381 5 1780.95
-32.8571 5 1780.95
-33.4718 4.98516 1775.67
-33.9466 4.98516 1775.67
-34.4214 4.98516 1775.67
-34.8961 4.98516 1775.67
-35.3709 4.98516 1775.67
-35.8457 4.98516 1775.67
-36.4497 4.97041 1770.41
-36.9231 4.97041 1770.41
-37.3964 4.97041 1770.41
-37.8698 4.97041 1770.41
-38.3432 4.97041 1770.41
-38.8166 4.97041 1770.41
-39.2899 4.97041 1770.41
-39.7633 4.97041 1770.41
-40.2367 4.97041 1770.41
-40.7101 4.97041 1770.41
-41.1834 4.97041 1770.41
-41.6568 4.97041 1770.41
-42.1302 4.97041 1770.41
-42.6036 4.97041 1770.41
-43.0769 4.97041 1770.41
-43.5503 4.97041 1770.41
-44.0237 4.97041 1770.41
-44.497 4.97041 1770.41
-44.9704 4.97041 1770.41
-45.4438 4.97041 1770.41
-45.9172 4.97041 1770.41
-46.3905 4.97041 1770.41
-46.8639 4.97041 1770.41
-47.3373 4.97041 1770.41
-47.8107 4.97041 1770.41
-48.284 4.97041 1770.41
-48.7574 4.97041 1770.41
-49.2308 4.97041 1770.41
-49.7041 4.97041 1770.41
-50.1775 4.97041 1770.41
-50.5638 4.98516 1775.67
-51.1243 4.97041 1770.41
-51.5976 4.97041 1770.41
-52.071 4.97041 1770.41
-52.5444 4.97041 1770.41
-53.0973 4.95575 1765.19
-53.6471 4.94118 1760
-54.1176 4.94118 1760
-54.7368 4.91228 1749.71
-55.2047 4.91228 1749.71
-56.092 4.82759 1719.54
-56.7521 4.78632 1704.84
-57.4011 4.74576 1690.4
-58.1006 4.69274 1671.51
-58.5475 4.69274 1671.51
-59.3407 4.61538 1643.96
-59.8907 4.59016 1634.97
-60.274 4.60274 1639.45
-60.973 4.54054 1617.3
-61.5054 4.51613 1608.6
-62.0321 4.49198 1600
-62.7822 4.40945 1570.6
-63.2898 4.38642 1562.4
-63.7922 4.36364 1554.29
-64.2487 4.35233 1550.26
-64.6632 4.35233 1550.26
-65.0777 4.35233 1550.26
-65.4922 4.35233 1550.26
-65.8701 4.36364 1554.29
-66.25 4.375 1558.33
-66.3102 4.49198 1600
-66.738 4.49198 1600
-66.9565 4.56522 1626.09
-67.1468 4.65374 1657.62
-67.2365 4.78632 1704.84
-67.9666 4.67967 1666.85
-67.907 4.88372 1739.53
-67.3418 5.31646 1893.67
-67.2848 5.56291 1981.46
-67.9344 5.5082 1961.97
-67.5618 5.9364 2114.49
-67.7818 6.10909 2176
-67.8327 6.38783 2275.29
-68.0315 6.61417 2355.91
-68.48 6.72 2393.6
-69.12 6.72 2393.6
-70.7246 6.08696 2168.12
-71.5789 5.89474 2099.65
-72.381 5.71429 2035.37
-72.9966 5.65657 2014.81
-73.8065 5.41935 1930.32
-74.377 5.36741 1911.82
-74.9045 5.35032 1905.73
-75.4286 5.33333 1899.68
-75.9365 5.33333 1899.68
-76.4444 5.33333 1899.68
-76.9524 5.33333 1899.68
-77.4603 5.33333 1899.68
-77.9683 5.33333 1899.68
-78.4762 5.33333 1899.68
-78.9841 5.33333 1899.68
-79.4921 5.33333 1899.68
-80 5.33333 1899.68
-80.5079 5.33333 1899.68
-81.0159 5.33333 1899.68
-81.5238 5.33333 1899.68
-82.0317 5.33333 1899.68
-82.5397 5.33333 1899.68
-83.0476 5.33333 1899.68
-83.5556 5.33333 1899.68
-84.0635 5.33333 1899.68
-84.5714 5.33333 1899.68
-85.0794 5.33333 1899.68
-85.5696 5.31646 1893.67
-86.0759 5.31646 1893.67
-86.5823 5.31646 1893.67
-87.0662 5.29968 1887.7
-87.571 5.29968 1887.7
-87.9503 5.21739 1858.39
-88.4472 5.21739 1858.39
-88.9164 5.20124 1852.63
-89.4118 5.20124 1852.63
-89.8462 5.16923 1841.23
-90.3067 5.15337 1835.58
-90.7975 5.15337 1835.58
-91.2883 5.15337 1835.58
-91.7791 5.15337 1835.58
-92.2324 5.13761 1829.97
-92.7217 5.13761 1829.97
-93.211 5.13761 1829.97
-93.6585 5.12195 1824.39
-94.1463 5.12195 1824.39
-94.6341 5.12195 1824.39
-95.122 5.12195 1824.39
-95.5623 5.10638 1818.84
-96.0486 5.10638 1818.84
-96.535 5.10638 1818.84
-97.0213 5.10638 1818.84
-97.5076 5.10638 1818.84
-97.9394 5.09091 1813.33
-98.4242 5.09091 1813.33
-98.9091 5.09091 1813.33
-99.3353 5.07553 1807.85
-99.8187 5.07553 1807.85
-100.302 5.07553 1807.85
-100.723 5.06024 1802.41
-101.205 5.06024 1802.41
-101.687 5.06024 1802.41
-102.169 5.06024 1802.41
-102.651 5.06024 1802.41
-103.133 5.06024 1802.41
-103.614 5.06024 1802.41
-104.096 5.06024 1802.41
-104.505 5.04505 1797
-104.985 5.04505 1797
-105.465 5.04505 1797
-105.946 5.04505 1797
-106.426 5.04505 1797
-106.907 5.04505 1797
-107.305 5.02994 1791.62
-107.784 5.02994 1791.62
-108.263 5.02994 1791.62
-108.743 5.02994 1791.62
-109.222 5.02994 1791.62
-109.701 5.02994 1791.62
-110.09 5.01493 1786.27
-110.659 5.02994 1791.62
-111.138 5.02994 1791.62
-111.522 5.01493 1786.27
-112 5.01493 1786.27
-112.478 5.01493 1786.27
-112.955 5.01493 1786.27
-113.433 5.01493 1786.27
-113.91 5.01493 1786.27
-114.286 5 1780.95
-114.762 5 1780.95
-115.238 5 1780.95
-115.714 5 1780.95
-116.083 4.98516 1775.67
-116.558 4.98516 1775.67
-117.033 4.98516 1775.67
-117.507 4.98516 1775.67
-117.982 4.98516 1775.67
-118.343 4.97041 1770.41
-118.702 4.95575 1765.19
-119.174 4.95575 1765.19
-119.646 4.95575 1765.19
-120.118 4.95575 1765.19
-120.59 4.95575 1765.19
-121.062 4.95575 1765.19
-121.534 4.95575 1765.19
-122.006 4.95575 1765.19
-122.353 4.94118 1760
-122.95 4.95575 1765.19
-123.422 4.95575 1765.19
-123.894 4.95575 1765.19
-124.366 4.95575 1765.19
-124.838 4.95575 1765.19
-125.444 4.97041 1770.41
-125.917 4.97041 1770.41
-126.391 4.97041 1770.41
-126.864 4.97041 1770.41
-127.337 4.97041 1770.41
-127.811 4.97041 1770.41
-128.284 4.97041 1770.41
-128.757 4.97041 1770.41
-129.231 4.97041 1770.41
-129.704 4.97041 1770.41
-130.178 4.97041 1770.41
-130.651 4.97041 1770.41
-131.276 4.98516 1775.67
-131.598 4.97041 1770.41
-132.071 4.97041 1770.41
-132.544 4.97041 1770.41
-133.018 4.97041 1770.41
-133.491 4.97041 1770.41
-133.964 4.97041 1770.41
-134.438 4.97041 1770.41
-134.911 4.97041 1770.41
-135.549 4.98516 1775.67
-136.024 4.98516 1775.67
-136.499 4.98516 1775.67
-136.973 4.98516 1775.67
-137.448 4.98516 1775.67
-137.923 4.98516 1775.67
-138.398 4.98516 1775.67
-138.872 4.98516 1775.67
-139.347 4.98516 1775.67
-139.822 4.98516 1775.67
-140.297 4.98516 1775.67
-140.772 4.98516 1775.67
-141.246 4.98516 1775.67
-141.721 4.98516 1775.67
-142.196 4.98516 1775.67
-142.671 4.98516 1775.67
-143.145 4.98516 1775.67
-143.62 4.98516 1775.67
-144.095 4.98516 1775.67
-144.57 4.98516 1775.67
-145.045 4.98516 1775.67
-145.519 4.98516 1775.67
-145.994 4.98516 1775.67
-146.469 4.98516 1775.67
-147.143 5 1780.95
-147.619 5 1780.95
-148.095 5 1780.95
-148.571 5 1780.95
-149.048 5 1780.95
-149.524 5 1780.95
-150 5 1780.95
-150.476 5 1780.95
-150.952 5 1780.95
-151.429 5 1780.95
-151.905 5 1780.95
-152.597 5.01493 1786.27
-152.857 5 1780.95
-153.552 5.01493 1786.27
-154.03 5.01493 1786.27
-154.507 5.01493 1786.27
-154.985 5.01493 1786.27
-155.463 5.01493 1786.27
-155.94 5.01493 1786.27
-156.418 5.01493 1786.27
-156.896 5.01493 1786.27
-157.373 5.01493 1786.27
-158.084 5.02994 1791.62
-158.563 5.02994 1791.62
-159.042 5.02994 1791.62
-159.521 5.02994 1791.62
-160 5.02994 1791.62
-160.721 5.04505 1797
-161.446 5.06024 1802.41
-161.928 5.06024 1802.41
-162.41 5.06024 1802.41
-163.394 5.09091 1813.33
-163.625 5.07553 1807.85
-164.364 5.09091 1813.33
-164.848 5.09091 1813.33
-165.593 5.10638 1818.84
-166.871 5.15337 1835.58
-167.095 5.13761 1829.97
-168.669 5.20124 1852.63
-169.72 5.23364 1864.17
-170.5 5.25 1870
-171.572 5.28302 1881.76
-172.366 5.29968 1887.7
-172.871 5.29968 1887.7
-173.671 5.31646 1893.67
-174.177 5.31646 1893.67
-174.684 5.31646 1893.67
-175.19 5.31646 1893.67
-175.696 5.31646 1893.67
-175.298 5.26646 1875.86
-175.5 5.25 1870
-175.108 5.20124 1852.63
-174.146 5.12195 1824.39
-171.563 4.95575 1765.19
-167.64 4.7191 1680.9
-168.839 4.75921 1695.18
-166.356 4.60274 1639.45
-166.795 4.60274 1639.45
-170.455 4.77273 1700
-173.567 4.91228 1749.71
-176.577 5.04505 1797
-178.838 5.13761 1829.97
-181.184 5.23364 1864.17
-182.32 5.26646 1875.86
-183.145 5.28302 1881.76
-182.043 5.20124 1852.63
-182.222 5.18519 1846.91
-181.155 5.10638 1818.84
-175.817 4.81375 1714.61
-173.855 4.69274 1671.51
-173.26 4.64088 1653.04
-173.444 4.6281 1648.48
-174.404 4.65374 1657.62
-177.55 4.78632 1704.84
-180 4.88372 1739.53
21.6092 5.28736 1719.54
21.1494 5.28736 1719.54
20.6897 5.28736 1719.54
20.5187 5.30259 1724.5
20.0576 5.30259 1724.5
19.5965 5.30259 1724.5
19.7101 5.33333 1734.49
19.8251 5.36443 1744.61
20.2353 5.41176 1760
20.355 5.44379 1770.41
20.4762 5.47619 1780.95
27.3482 5.87859 1911.82
29.281 6.01307 1955.56
29.4737 6.05263 1968.42
28.9474 6.05263 1968.42
29.8667 6.13333 1994.67
29.699 6.15385 2001.34
29.1639 6.15385 2001.34
28.6288 6.15385 2001.34
28.0936 6.15385 2001.34
27.5585 6.15385 2001.34
27.0234 6.15385 2001.34
26.4883 6.15385 2001.34
25.9532 6.15385 2001.34
25.4181 6.15385 2001.34
23.1579 6.05263 1968.42
21.9608 6.01307 1955.56
21.1075 5.99349 1949.19
19.6129 5.93548 1930.32
18.7781 5.9164 1924.12
18.2637 5.9164 1924.12
17.4359 5.89744 1917.95
16.9231 5.89744 1917.95
16.4103 5.89744 1917.95
15.8974 5.89744 1917.95
15.3846 5.89744 1917.95
14.8718 5.89744 1917.95
14.0575 5.87859 1911.82
13.8462 5.89744 1917.95
13.0351 5.87859 1911.82
12.524 5.87859 1911.82
12.0128 5.87859 1911.82
11.5016 5.87859 1911.82
10.9904 5.87859 1911.82
10.4792 5.87859 1911.82
9.96805 5.87859 1911.82
9.45687 5.87859 1911.82
8.94569 5.87859 1911.82
8.4345 5.87859 1911.82
7.92332 5.87859 1911.82
7.41214 5.87859 1911.82
6.90096 5.87859 1911.82
6.38978 5.87859 1911.82
5.87859 5.87859 1911.82
5.36741 5.87859 1911.82
4.85623 5.87859 1911.82
4.34505 5.87859 1911.82
3.83387 5.87859 1911.82
1.75549 5.76803 1875.86
0.247678 5.69659 1852.63
-1.46341 5.60976 1824.39
-3.35329 5.50898 1791.62
-2.67477 5.59271 1818.84
-4.08408 5.52553 1797
-8.63636 5.22727 1700
-10.6667 5.11111 1662.22
-12.0548 5.0411 1639.45
-12.4932 5.0411 1639.45
-14.5455 4.91979 1600
-15.1467 4.90667 1595.73
-15.9151 4.88064 1587.27
-16.3395 4.88064 1587.27
-16.7639 4.88064 1587.27
-17.1883 4.88064 1587.27
-17.6127 4.88064 1587.27
-18.0371 4.88064 1587.27
-18.4615 4.88064 1587.27
-18.8859 4.88064 1587.27
-19.3103 4.88064 1587.27
-19.7347 4.88064 1587.27
-20.1592 4.88064 1587.27
-20.5836 4.88064 1587.27
-20.6933 4.90667 1595.73
-21.2766 4.89362 1591.49
-21.5467 4.90667 1595.73
-21.0298 4.98645 1621.68
-22.0912 4.93298 1604.29
-21.2603 5.0411 1639.45
-21.2155 5.08287 1653.04
-21.0056 5.13966 1671.51
-21.2885 5.15406 1676.19
-21.573 5.16854 1680.9
-21.6949 5.19774 1690.4
-21.6524 5.24217 1704.84
-20.9302 5.34884 1739.53
-19.4595 5.52553 1797
-19.0244 5.60976 1824.39
-18.3851 5.71429 1858.39
-18.3072 5.76803 1875.86
-18.4227 5.80442 1887.7
-18.9274 5.80442 1887.7
-19.0476 5.84127 1899.68
-19.5556 5.84127 1899.68
-20.0635 5.84127 1899.68
-20.7595 5.82278 1893.67
-21.2658 5.82278 1893.67
-21.7722 5.82278 1893.67
-22.4606 5.80442 1887.7
-22.9653 5.80442 1887.7
-23.6478 5.78616 1881.76
-24.6729 5.73209 1864.17
-26.5046 5.59271 1818.84
-27.1515 5.57576 1813.33
-27.7946 5.55891 1807.85
-28.4337 5.54217 1802.41
-29.0691 5.52553 1797
-29.7006 5.50898 1791.62
-30.3284 5.49254 1786.27
-30.806 5.49254 1786.27
-31.2836 5.49254 1786.27
-31.9048 5.47619 1780.95
-32.381 5.47619 1780.95
-32.997 5.45994 1775.67
-33.3333 5.47619 1780.95
-33.9466 5.45994 1775.67
-34.4214 5.45994 1775.67
-34.8961 5.45994 1775.67
-35.3709 5.45994 1775.67
-35.8457 5.45994 1775.67
-36.4497 5.44379 1770.41
-36.9231 5.44379 1770.41
-37.3964 5.44379 1770.41
-37.8698 5.44379 1770.41
-38.3432 5.44379 1770.41
-38.8166 5.44379 1770.41
-39.2899 5.44379 1770.41
-39.7633 5.44379 1770.41
-40.2367 5.44379 1770.41
-40.7101 5.44379 1770.41
-41.1834 5.44379 1770.41
-41.6568 5.44379 1770.41
-42.1302 5.44379 1770.41
-42.6036 5.44379 1770.41
-43.0769 5.44379 1770.41
-43.5503 5.44379 1770.41
-44.0237 5.44379 1770.41
-44.497 5.44379 1770.41
-44.9704 5.44379 1770.41
-45.4438 5.44379 1770.41
-45.9172 5.44379 1770.41
-46.3905 5.44379 1770.41
-46.8639 5.44379 1770.41
-47.3373 5.44379 1770.41
-47.8107 5.44379 1770.41
-48.284 5.44379 1770.41
-48.7574 5.44379 1770.41
-49.2308 5.44379 1770.41
-49.7041 5.44379 1770.41
-50.089 5.45994 1775.67
-50.6509 5.44379 1770.41
-51.1243 5.44379 1770.41
-51.5976 5.44379 1770.41
-52.071 5.44379 1770.41
-52.6254 5.42773 1765.19
-53.1765 5.41176 1760
-53.7243 5.39589 1754.84
-54.7126 5.28736 1719.54
-54.8105 5.36443 1744.61
-55.3488 5.34884 1739.53
-56.2963 5.24217 1704.84
-57.0141 5.1831 1685.63
-57.6536 5.13966 1671.51
-58.3425 5.08287 1653.04
-58.9589 5.0411 1639.45
-59.4536 5.02732 1634.97
-60 5 1626.09
-60.4348 5 1626.09
-61.0753 4.94624 1608.6
-61.5054 4.94624 1608.6
-62.2222 4.86772 1583.07
-62.8272 4.81675 1566.49
-63.3333 4.79167 1558.33
-63.7922 4.77922 1554.29
-64.2487 4.76684 1550.26
-64.7028 4.75452 1546.25
-65.1163 4.75452 1546.25
-65.4922 4.76684 1550.26
-65.8333 4.79167 1558.33
-66.2857 4.77922 1554.29
-66.6319 4.80418 1562.4
-66.8435 4.88064 1587.27
-67.1658 4.91979 1600
-67.3913 5 1626.09
-67.59 5.09695 1657.62
-67.9666 5.12535 1666.85
-67.942 5.33333 1734.49
-67.6543 5.67901 1846.91
-67.4098 6.03279 1961.97
-67.6923 6.15385 2001.34
-67.8621 6.34483 2063.45
-68.0851 6.52482 2121.99
-68.1919 6.78967 2208.12
-68.5714 6.91729 2249.62
-68.9655 7.04981 2292.72
-69.7744 6.91729 2249.62
-70.9541 6.50177 2114.49
-71.9192 6.19529 2014.81
-72.4579 6.19529 2014.81
-73.0435 6.15385 2001.34
-73.8462 5.89744 1917.95
-74.3949 5.85987 1905.73
-74.9206 5.84127 1899.68
-75.4286 5.84127 1899.68
-75.9365 5.84127 1899.68
-76.4444 5.84127 1899.68
-76.9524 5.84127 1899.68
-77.4603 5.84127 1899.68
-77.9683 5.84127 1899.68
-78.4762 5.84127 1899.68
-78.9841 5.84127 1899.68
-79.4921 5.84127 1899.68
-80 5.84127 1899.68
-80.5079 5.84127 1899.68
-81.0159 5.84127 1899.68
-81.5238 5.84127 1899.68
-82.0317 5.84127 1899.68
-82.5397 5.84127 1899.68
-83.0476 5.84127 1899.68
-83.5556 5.84127 1899.68
-84.0635 5.84127 1899.68
-84.5714 5.84127 1899.68
-85.0794 5.84127 1899.68
-85.5696 5.82278 1893.67
-86.0759 5.82278 1893.67
-86.5615 5.80442 1887.7
-87.0662 5.80442 1887.7
-87.5 5.75 1870
-87.9257 5.69659 1852.63
-88.4211 5.69659 1852.63
-88.9164 5.69659 1852.63
-89.3827 5.67901 1846.91
-89.8462 5.66154 1841.23
-90.3067 5.64417 1835.58
-90.7975 5.64417 1835.58
-91.2538 5.62691 1829.97
-91.7431 5.62691 1829.97
-92.1951 5.60976 1824.39
-92.6829 5.60976 1824.39
-93.1707 5.60976 1824.39
-93.6585 5.60976 1824.39
-94.1463 5.60976 1824.39
-94.6341 5.60976 1824.39
-95.122 5.60976 1824.39
-95.5623 5.59271 1818.84
-96.0486 5.59271 1818.84
-96.535 5.59271 1818.84
-97.0213 5.59271 1818.84
-97.5076 5.59271 1818.84
-97.9394 5.57576 1813.33
-98.4242 5.57576 1813.33
-98.852 5.55891 1807.85
-99.3353 5.55891 1807.85
-99.8187 5.55891 1807.85
-100.302 5.55891 1807.85
-100.723 5.54217 1802.41
-101.205 5.54217 1802.41
-101.687 5.54217 1802.41
-102.169 5.54217 1802.41
-102.651 5.54217 1802.41
-103.133 5.54217 1802.41
-103.544 5.52553 1797
-104.024 5.52553 1797
-104.505 5.52553 1797
-104.985 5.52553 1797
-105.465 5.52553 1797
-105.946 5.52553 1797
-106.426 5.52553 1797
-106.826 5.50898 1791.62
-107.305 5.50898 1791.62
-107.784 5.50898 1791.62
-108.263 5.50898 1791.62
-108.743 5.50898 1791.62
-109.134 5.49254 1786.27
-109.612 5.49254 1786.27
-110.09 5.49254 1786.27
-110.567 5.49254 1786.27
-111.045 5.49254 1786.27
-111.522 5.49254 1786.27
-112 5.49254 1786.27
-112.478 5.49254 1786.27
-112.857 5.47619 1780.95
-113.433 5.49254 1786.27
-113.81 5.47619 1780.95
-114.286 5.47619 1780.95
-114.762 5.47619 1780.95
-115.238 5.47619 1780.95
-115.714 5.47619 1780.95
-116.083 5.45994 1775.67
