-199.004 -91.3879 2129.54
-200.43 -92.043 2144.8
-203.663 -94.0659 2191.94
-208 -96.9057 2258.11
-213.647 -100.706 2346.67
-205.882 -94.4118 2200
-222.739 -106.556 2482.99
50.963 -94.5185 2216.3
50.3704 -94.5185 2216.3
49.7778 -94.5185 2216.3
49.1852 -94.5185 2216.3
48.5926 -94.5185 2216.3
48 -94.5185 2216.3
47.4074 -94.5185 2216.3
46.8148 -94.5185 2216.3
46.2222 -94.5185 2216.3
45.6296 -94.5185 2216.3
45.037 -94.5185 2216.3
44.4444 -94.5185 2216.3
43.8519 -94.5185 2216.3
43.2593 -94.5185 2216.3
42.6667 -94.5185 2216.3
41.6236 -94.1697 2208.12
41.0332 -94.1697 2208.12
40.4428 -94.1697 2208.12
39.8524 -94.1697 2208.12
39.262 -94.1697 2208.12
38.6716 -94.1697 2208.12
38.0812 -94.1697 2208.12
37.4908 -94.1697 2208.12
36.9004 -94.1697 2208.12
36.31 -94.1697 2208.12
35.7196 -94.1697 2208.12
34.7059 -93.8235 2200
34.1176 -93.8235 2200
33.5294 -93.8235 2200
32.9412 -93.8235 2200
32.3529 -93.8235 2200
31.7647 -93.8235 2200
31.1765 -93.8235 2200
30.5882 -93.8235 2200
30 -93.8235 2200
29.011 -93.4799 2191.94
28.4249 -93.4799 2191.94
27.8388 -93.4799 2191.94
27.2527 -93.4799 2191.94
26.6667 -93.4799 2191.94
26.0806 -93.4799 2191.94
25.4945 -93.4799 2191.94
24.9084 -93.4799 2191.94
24.3223 -93.4799 2191.94
23.7363 -93.4799 2191.94
23.1502 -93.4799 2191.94
22.5641 -93.4799 2191.94
21.978 -93.4799 2191.94
21.3919 -93.4799 2191.94
20.8059 -93.4799 2191.94
19.854 -93.1387 2183.94
19.2701 -93.1387 2183.94
18.6861 -93.1387 2183.94
18.1022 -93.1387 2183.94
17.5182 -93.1387 2183.94
16.9343 -93.1387 2183.94
16.3504 -93.1387 2183.94
15.4182 -92.8 2176
14.8364 -92.8 2176
14.2545 -92.8 2176
13.6727 -92.8 2176
13.0909 -92.8 2176
12.5091 -92.8 2176
11.9273 -92.8 2176
11.3455 -92.8 2176
10.7636 -92.8 2176
10.1818 -92.8 2176
9.6 -92.8 2176
9.01818 -92.8 2176
8.43636 -92.8 2176
7.53623 -92.4638 2168.12
6.95652 -92.4638 2168.12
6.69091 -92.8 2176
5.7971 -92.4638 2168.12
5.21739 -92.4638 2168.12
4.63768 -92.4638 2168.12
4.05797 -92.4638 2168.12
3.47826 -92.4638 2168.12
2.89855 -92.4638 2168.12
2.31884 -92.4638 2168.12
1.73913 -92.4638 2168.12
0.866426 -92.13 2160.29
0.288809 -92.13 2160.29
-0.288809 -92.13 2160.29
-0.866426 -92.13 2160.29
-1.44404 -92.13 2160.29
-2.02166 -92.13 2160.29
-2.59928 -92.13 2160.29
-3.1769 -92.13 2160.29
-3.75451 -92.13 2160.29
-4.60432 -91.7986 2152.52
-5.17986 -91.7986 2152.52
-5.7554 -91.7986 2152.52
-6.33094 -91.7986 2152.52
-6.90647 -91.7986 2152.52
-7.48201 -91.7986 2152.52
-8.05755 -91.7986 2152.52
-8.63309 -91.7986 2152.52
-9.20863 -91.7986 2152.52
-9.78417 -91.7986 2152.52
-10.3597 -91.7986 2152.52
-10.9353 -91.7986 2152.52
-11.5108 -91.7986 2152.52
-12.0863 -91.7986 2152.52
-12.6619 -91.7986 2152.52
-13.4767 -91.4695 2144.8
-14.0502 -91.4695 2144.8
-14.6237 -91.4695 2144.8
-15.1971 -91.4695 2144.8
-15.7706 -91.4695 2144.8
-16.3441 -91.4695 2144.8
-16.9176 -91.4695 2144.8
-17.491 -91.4695 2144.8
-18.0645 -91.4695 2144.8
-18.638 -91.4695 2144.8
-19.4286 -91.1429 2137.14
-20 -91.1429 2137.14
-20.5714 -91.1429 2137.14
-21.1429 -91.1429 2137.14
-21.7143 -91.1429 2137.14
-22.2857 -91.1429 2137.14
-22.8571 -91.1429 2137.14
-23.4286 -91.1429 2137.14
-24 -91.1429 2137.14
-24.5714 -91.1429 2137.14
-25.1429 -91.1429 2137.14
-25.7143 -91.1429 2137.14
-26.2857 -91.1429 2137.14
-26.8571 -91.1429 2137.14
-27.4286 -91.1429 2137.14
-28.1851 -90.8185 2129.54
-28.7544 -90.8185 2129.54
-29.3238 -90.8185 2129.54
-29.8932 -90.8185 2129.54
-30.4626 -90.8185 2129.54
-31.032 -90.8185 2129.54
-31.6014 -90.8185 2129.54
-32.1708 -90.8185 2129.54
-32.7402 -90.8185 2129.54
-33.3096 -90.8185 2129.54
-34.0426 -90.4965 2121.99
-34.6099 -90.4965 2121.99
-35.1773 -90.4965 2121.99
-35.7447 -90.4965 2121.99
-36.3121 -90.4965 2121.99
-36.8794 -90.4965 2121.99
-37.4468 -90.4965 2121.99
-38.0142 -90.4965 2121.99
-38.5816 -90.4965 2121.99
-39.1489 -90.4965 2121.99
-39.7163 -90.4965 2121.99
-40.2837 -90.4965 2121.99
-40.8511 -90.4965 2121.99
-41.4184 -90.4965 2121.99
-41.9858 -90.4965 2121.99
-42.6855 -90.1767 2114.49
-43.2509 -90.1767 2114.49
-43.8163 -90.1767 2114.49
-44.3816 -90.1767 2114.49
-44.947 -90.1767 2114.49
-45.5124 -90.1767 2114.49
-46.0777 -90.1767 2114.49
-46.7606 -89.8592 2107.04
-47.3239 -89.8592 2107.04
-47.8873 -89.8592 2107.04
-48.4507 -89.8592 2107.04
-49.0141 -89.8592 2107.04
-49.5775 -89.8592 2107.04
-50.1408 -89.8592 2107.04
-50.7042 -89.8592 2107.04
-51.2676 -89.8592 2107.04
-51.831 -89.8592 2107.04
-52.3944 -89.8592 2107.04
-52.9577 -89.8592 2107.04
-53.5211 -89.8592 2107.04
-54.0845 -89.8592 2107.04
-54.6479 -89.8592 2107.04
-55.2113 -89.8592 2107.04
-55.7746 -89.8592 2107.04
-56.338 -89.8592 2107.04
-56.9014 -89.8592 2107.04
-57.4648 -89.8592 2107.04
-58.0282 -89.8592 2107.04
-58.5915 -89.8592 2107.04
-59.1549 -89.8592 2107.04
-59.7183 -89.8592 2107.04
-60.2817 -89.8592 2107.04
-60.8451 -89.8592 2107.04
-61.4085 -89.8592 2107.04
-61.9718 -89.8592 2107.04
-62.5352 -89.8592 2107.04
-63.0986 -89.8592 2107.04
-63.6042 -90.1767 2114.49
-64.1696 -90.1767 2114.49
-64.735 -90.1767 2114.49
-65.3004 -90.1767 2114.49
-65.8657 -90.1767 2114.49
-66.4311 -90.1767 2114.49
-66.9965 -90.1767 2114.49
-67.5618 -90.1767 2114.49
-68.1272 -90.1767 2114.49
-68.6525 -90.4965 2121.99
-69.2199 -90.4965 2121.99
-69.7872 -90.4965 2121.99
-70.3546 -90.4965 2121.99
-70.922 -90.4965 2121.99
-71.4894 -90.4965 2121.99
-72.0567 -90.4965 2121.99
-72.6241 -90.4965 2121.99
-73.1673 -90.8185 2129.54
-73.7367 -90.8185 2129.54
-74.306 -90.8185 2129.54
-74.8754 -90.8185 2129.54
-75.4448 -90.8185 2129.54
-76.0142 -90.8185 2129.54
-76.5836 -90.8185 2129.54
-77.153 -90.8185 2129.54
-77.7143 -91.1429 2137.14
-78.2857 -91.1429 2137.14
-78.8571 -91.1429 2137.14
-79.4286 -91.1429 2137.14
-80 -91.1429 2137.14
-80.5714 -91.1429 2137.14
-81.1429 -91.1429 2137.14
-81.7143 -91.1429 2137.14
-82.2857 -91.1429 2137.14
-82.8571 -91.1429 2137.14
-83.4286 -91.1429 2137.14
-84.0143 -91.4695 2144.8
-84.5878 -91.4695 2144.8
-85.1613 -91.4695 2144.8
-85.7348 -91.4695 2144.8
-86.3082 -91.4695 2144.8
-86.8817 -91.4695 2144.8
-87.4552 -91.4695 2144.8
-88.0287 -91.4695 2144.8
-88.6022 -91.4695 2144.8
-89.1756 -91.4695 2144.8
-89.7491 -91.4695 2144.8
-90.3226 -91.4695 2144.8
-90.8961 -91.4695 2144.8
-91.4695 -91.4695 2144.8
-92.0863 -91.7986 2152.52
-92.6619 -91.7986 2152.52
-93.2374 -91.7986 2152.52
-93.8129 -91.7986 2152.52
-94.3885 -91.7986 2152.52
-94.964 -91.7986 2152.52
-95.5396 -91.7986 2152.52
-96.1151 -91.7986 2152.52
-96.6906 -91.7986 2152.52
-97.3285 -92.13 2160.29
-97.9061 -92.13 2160.29
-98.4838 -92.13 2160.29
-99.0614 -92.13 2160.29
-99.639 -92.13 2160.29
-100.217 -92.13 2160.29
-100.794 -92.13 2160.29
-101.449 -92.4638 2168.12
-102.029 -92.4638 2168.12
-102.527 -92.13 2160.29
-103.105 -92.13 2160.29
-103.597 -91.7986 2152.52
-104.086 -91.4695 2144.8
-104.571 -91.1429 2137.14
-104.965 -90.4965 2121.99
-105.532 -90.4965 2121.99
-106.007 -90.1767 2114.49
-106.572 -90.1767 2114.49
-107.138 -90.1767 2114.49
-107.703 -90.1767 2114.49
-108.269 -90.1767 2114.49
-108.834 -90.1767 2114.49
-109.504 -90.4965 2121.99
-109.965 -90.1767 2114.49
-110.53 -90.1767 2114.49
-111.317 -90.8185 2129.54
-111.773 -90.4965 2121.99
-112.456 -90.8185 2129.54
-113.262 -91.4695 2144.8
-113.835 -91.4695 2144.8
-114.043 -90.4965 2121.99
-114.733 -90.8185 2129.54
-115.556 -91.4695 2144.8
-115.872 -90.8185 2129.54
-116.441 -90.8185 2129.54
-116.749 -90.1767 2114.49
-117.314 -90.1767 2114.49
-117.88 -90.1767 2114.49
-118.445 -90.1767 2114.49
-119.011 -90.1767 2114.49
-119.576 -90.1767 2114.49
-120.141 -90.1767 2114.49
-120.707 -90.1767 2114.49
-121.272 -90.1767 2114.49
-121.837 -90.1767 2114.49
-122.403 -90.1767 2114.49
-122.968 -90.1767 2114.49
-123.534 -90.1767 2114.49
-124.099 -90.1767 2114.49
-124.664 -90.1767 2114.49
-125.23 -90.1767 2114.49
-125.795 -90.1767 2114.49
-126.36 -90.1767 2114.49
-126.926 -90.1767 2114.49
-127.491 -90.1767 2114.49
-128.057 -90.1767 2114.49
-128.622 -90.1767 2114.49
-129.187 -90.1767 2114.49
-129.753 -90.1767 2114.49
-130.318 -90.1767 2114.49
-130.883 -90.1767 2114.49
-131.449 -90.1767 2114.49
-132.014 -90.1767 2114.49
-132.58 -90.1767 2114.49
-133.333 -90.4965 2121.99
-134.874 -92.13 2160.29
-135.652 -92.4638 2168.12
-137.059 -93.8235 2200
-138.29 -94.8699 2224.54
-139.326 -95.5805 2241.2
-140.15 -95.9398 2249.62
-140.524 -95.5805 2241.2
-140.669 -94.8699 2224.54
-151.034 -110 2579.31
-140.952 -93.4799 2191.94
-150.293 -106.778 2503.77
-148.387 -102.903 2412.9
-152.851 -108.596 2546.38
-151.701 -105.892 2482.99
-153.898 -108.136 2535.59
-155.214 -109.06 2557.26
-151.903 -103.32 2422.67
-162.581 -117.604 2757.6
-166.507 -122.105 2863.16
-168.544 -123.883 2904.85
-169.32 -123.883 2904.85
-169.662 -123.285 2890.82
-163.571 -113.929 2671.43
-165.818 -116 2720
-154.375 -99.6875 2337.5
-159.012 -105.021 2462.55
-153.893 -97.4046 2283.97
-153.383 -95.9398 2249.62
-156.576 -99.2996 2328.4
-150.605 -90.8185 2129.54
-151.174 -90.8185 2129.54
-151.237 -90.1767 2114.49
-151.802 -90.1767 2114.49
-152.367 -90.1767 2114.49
-152.933 -90.1767 2114.49
-153.498 -90.1767 2114.49
-154.064 -90.1767 2114.49
-154.629 -90.1767 2114.49
-155.194 -90.1767 2114.49
-155.76 -90.1767 2114.49
-156.325 -90.1767 2114.49
-156.89 -90.1767 2114.49
-157.456 -90.1767 2114.49
-158.021 -90.1767 2114.49
-158.587 -90.1767 2114.49
-159.152 -90.1767 2114.49
-159.717 -90.1767 2114.49
-160.283 -90.1767 2114.49
-160.848 -90.1767 2114.49
-161.413 -90.1767 2114.49
-161.979 -90.1767 2114.49
-162.544 -90.1767 2114.49
-163.11 -90.1767 2114.49
-163.675 -90.1767 2114.49
-164.24 -90.1767 2114.49
-166.331 -91.7986 2152.52
-169.814 -94.8699 2224.54
-172.824 -97.4046 2283.97
-175.625 -99.6875 2337.5
-178.956 -102.49 2403.21
-181.224 -104.163 2442.45
-184.435 -106.778 2503.77
-204.532 -125.714 2947.78
-204.706 -125.098 2933.33
-210.693 -126.337 2962.38
-205.283 -120.377 2822.64
-207.238 -121.524 2849.52
-204.444 -118.148 2770.37
-202.353 -115.475 2707.69
-199.824 -112.423 2636.12
-187.294 -100.078 2346.67
-194.667 -106.333 2493.33
-181.392 -93.4799 2191.94
-180.505 -92.13 2160.29
-179.291 -90.4965 2121.99
-179.505 -90.1767 2114.49
-180.071 -90.1767 2114.49
-180.636 -90.1767 2114.49
-181.201 -90.1767 2114.49
-181.767 -90.1767 2114.49
-182.332 -90.1767 2114.49
-182.898 -90.1767 2114.49
-183.463 -90.1767 2114.49
-184.028 -90.1767 2114.49
-184.594 -90.1767 2114.49
-185.159 -90.1767 2114.49
-185.724 -90.1767 2114.49
-186.29 -90.1767 2114.49
-186.855 -90.1767 2114.49
-187.42 -90.1767 2114.49
-187.986 -90.1767 2114.49
-188.551 -90.1767 2114.49
-189.117 -90.1767 2114.49
-189.682 -90.1767 2114.49
-190.247 -90.1767 2114.49
-190.813 -90.1767 2114.49
-191.378 -90.1767 2114.49
-191.943 -90.1767 2114.49
-192.509 -90.1767 2114.49
-193.074 -90.1767 2114.49
-193.64 -90.1767 2114.49
-194.61 -90.4965 2121.99
-195.177 -90.4965 2121.99
-195.745 -90.4965 2121.99
-196.312 -90.4965 2121.99
-196.879 -90.4965 2121.99
-197.447 -90.4965 2121.99
-198.014 -90.4965 2121.99
-199.004 -90.8185 2129.54
-201.3 -92.13 2160.29
-200.571 -91.1429 2137.14
-208.973 -97.0342 2275.29
-217.419 -102.903 2412.9
-220.328 -104.59 2452.46
-229.565 -110.957 2601.74
50.963 -93.9259 2216.3
50.3704 -93.9259 2216.3
49.7778 -93.9259 2216.3
49.1852 -93.9259 2216.3
48.5926 -93.9259 2216.3
48 -93.9259 2216.3
47.4074 -93.9259 2216.3
46.8148 -93.9259 2216.3
46.2222 -93.9259 2216.3
45.6296 -93.9259 2216.3
45.037 -93.9259 2216.3
44.4444 -93.9259 2216.3
43.8519 -93.9259 2216.3
42.8044 -93.5793 2208.12
42.214 -93.5793 2208.12
41.6236 -93.5793 2208.12
41.0332 -93.5793 2208.12
40.4428 -93.5793 2208.12
39.8524 -93.5793 2208.12
39.262 -93.5793 2208.12
38.6716 -93.5793 2208.12
38.0812 -93.5793 2208.12
37.4908 -93.5793 2208.12
36.9004 -93.5793 2208.12
36.31 -93.5793 2208.12
35.7196 -93.5793 2208.12
34.7059 -93.2353 2200
34.1176 -93.2353 2200
33.5294 -93.2353 2200
32.9412 -93.2353 2200
32.3529 -93.2353 2200
31.7647 -93.2353 2200
31.1765 -93.2353 2200
30.5882 -93.2353 2200
30 -93.2353 2200
29.4118 -93.2353 2200
28.4249 -92.8938 2191.94
27.8388 -92.8938 2191.94
27.2527 -92.8938 2191.94
26.6667 -92.8938 2191.94
26.0806 -92.8938 2191.94
25.4945 -92.8938 2191.94
24.9084 -92.8938 2191.94
24.3223 -92.8938 2191.94
23.7363 -92.8938 2191.94
23.1502 -92.8938 2191.94
22.5641 -92.8938 2191.94
21.978 -92.8938 2191.94
21.0219 -92.5547 2183.94
20.438 -92.5547 2183.94
19.854 -92.5547 2183.94
19.2701 -92.5547 2183.94
18.6861 -92.5547 2183.94
18.1022 -92.5547 2183.94
17.5182 -92.5547 2183.94
16.9343 -92.5547 2183.94
16.3504 -92.5547 2183.94
15.4182 -92.2182 2176
14.8364 -92.2182 2176
14.2545 -92.2182 2176
13.6727 -92.2182 2176
13.0909 -92.2182 2176
12.5091 -92.2182 2176
11.9273 -92.2182 2176
11.3455 -92.2182 2176
10.7636 -92.2182 2176
10.1818 -92.2182 2176
9.6 -92.2182 2176
9.01818 -92.2182 2176
8.43636 -92.2182 2176
7.85455 -92.2182 2176
7.27273 -92.2182 2176
6.37681 -91.8841 2168.12
6.10909 -92.2182 2176
5.21739 -91.8841 2168.12
4.63768 -91.8841 2168.12
4.05797 -91.8841 2168.12
3.47826 -91.8841 2168.12
2.89855 -91.8841 2168.12
2.31884 -91.8841 2168.12
1.73913 -91.8841 2168.12
0.866426 -91.5523 2160.29
0.288809 -91.5523 2160.29
-0.288809 -91.5523 2160.29
-0.866426 -91.5523 2160.29
-1.44404 -91.5523 2160.29
-2.02166 -91.5523 2160.29
-2.59928 -91.5523 2160.29
-3.45324 -91.223 2152.52
-4.02878 -91.223 2152.52
-4.33213 -91.5523 2160.29
-5.17986 -91.223 2152.52
-5.7554 -91.223 2152.52
-6.33094 -91.223 2152.52
-6.90647 -91.223 2152.52
-7.48201 -91.223 2152.52
-8.05755 -91.223 2152.52
-8.63309 -91.223 2152.52
-9.20863 -91.223 2152.52
-9.78417 -91.223 2152.52
-10.3597 -91.223 2152.52
-10.9353 -91.223 2152.52
-11.5108 -91.223 2152.52
-12.3297 -90.8961 2144.8
-12.9032 -90.8961 2144.8
-13.4767 -90.8961 2144.8
-14.0502 -90.8961 2144.8
-14.6237 -90.8961 2144.8
-15.1971 -90.8961 2144.8
-15.7706 -90.8961 2144.8
-16.3441 -90.8961 2144.8
-16.9176 -90.8961 2144.8
-17.491 -90.8961 2144.8
-18.2857 -90.5714 2137.14
-18.8571 -90.5714 2137.14
-19.4286 -90.5714 2137.14
-19.7849 -90.8961 2144.8
-20.5714 -90.5714 2137.14
-21.1429 -90.5714 2137.14
-21.7143 -90.5714 2137.14
-22.2857 -90.5714 2137.14
-22.8571 -90.5714 2137.14
-23.4286 -90.5714 2137.14
-24 -90.5714 2137.14
-24.5714 -90.5714 2137.14
-25.1429 -90.5714 2137.14
-25.7143 -90.5714 2137.14
-26.2857 -90.5714 2137.14
-26.8571 -90.5714 2137.14
-27.6157 -90.2491 2129.54
-28.1851 -90.2491 2129.54
-28.7544 -90.2491 2129.54
-29.3238 -90.2491 2129.54
-29.8932 -90.2491 2129.54
-30.4626 -90.2491 2129.54
-31.032 -90.2491 2129.54
-31.6014 -90.2491 2129.54
-32.1708 -90.2491 2129.54
-32.7402 -90.2491 2129.54
-33.3096 -90.2491 2129.54
-34.0426 -89.9291 2121.99
-34.6099 -89.9291 2121.99
-35.1773 -89.9291 2121.99
-35.7447 -89.9291 2121.99
-36.3121 -89.9291 2121.99
-36.8794 -89.9291 2121.99
-37.4468 -89.9291 2121.99
-38.0142 -89.9291 2121.99
-38.7279 -89.6113 2114.49
-39.2933 -89.6113 2114.49
-39.8587 -89.6113 2114.49
-40.424 -89.6113 2114.49
-40.9894 -89.6113 2114.49
-41.5548 -89.6113 2114.49
-42.1201 -89.6113 2114.49
-42.6855 -89.6113 2114.49
-43.2509 -89.6113 2114.49
-43.8163 -89.6113 2114.49
-44.3816 -89.6113 2114.49
-44.947 -89.6113 2114.49
-45.5124 -89.6113 2114.49
-46.0777 -89.6113 2114.49
-46.7606 -89.2958 2107.04
-47.3239 -89.2958 2107.04
-47.8873 -89.2958 2107.04
-48.4507 -89.2958 2107.04
-49.0141 -89.2958 2107.04
-49.5775 -89.2958 2107.04
-50.1408 -89.2958 2107.04
-50.7042 -89.2958 2107.04
-51.2676 -89.2958 2107.04
-51.831 -89.2958 2107.04
-52.3944 -89.2958 2107.04
-52.9577 -89.2958 2107.04
-53.5211 -89.2958 2107.04
-54.0845 -89.2958 2107.04
-54.6479 -89.2958 2107.04
-55.2113 -89.2958 2107.04
-55.7746 -89.2958 2107.04
-56.338 -89.2958 2107.04
-56.9014 -89.2958 2107.04
-57.4648 -89.2958 2107.04
-58.0282 -89.2958 2107.04
-58.5915 -89.2958 2107.04
-59.1549 -89.2958 2107.04
-59.7183 -89.2958 2107.04
-60.2817 -89.2958 2107.04
-60.8451 -89.2958 2107.04
-61.4085 -89.2958 2107.04
-61.9718 -89.2958 2107.04
-62.5352 -89.2958 2107.04
-63.0986 -89.2958 2107.04
-63.6042 -89.6113 2114.49
-64.1696 -89.6113 2114.49
-64.735 -89.6113 2114.49
-65.3004 -89.6113 2114.49
-65.8657 -89.6113 2114.49
-66.4311 -89.6113 2114.49
-66.9965 -89.6113 2114.49
-67.5618 -89.6113 2114.49
-68.1272 -89.6113 2114.49
-68.6926 -89.6113 2114.49
-69.2199 -89.9291 2121.99
-69.7872 -89.9291 2121.99
-70.3546 -89.9291 2121.99
-70.922 -89.9291 2121.99
-71.4894 -89.9291 2121.99
-72.0567 -89.9291 2121.99
-72.6241 -89.9291 2121.99
-73.1915 -89.9291 2121.99
-73.7367 -90.2491 2129.54
-74.306 -90.2491 2129.54
-74.8754 -90.2491 2129.54
-75.4448 -90.2491 2129.54
-76.0142 -90.2491 2129.54
-76.5836 -90.2491 2129.54
-77.153 -90.2491 2129.54
-77.7224 -90.2491 2129.54
-78.2918 -90.2491 2129.54
-78.8612 -90.2491 2129.54
-79.4286 -90.5714 2137.14
-80 -90.5714 2137.14
-80.5714 -90.5714 2137.14
-81.1429 -90.5714 2137.14
-81.7143 -90.5714 2137.14
-82.2857 -90.5714 2137.14
-82.8571 -90.5714 2137.14
-83.4286 -90.5714 2137.14
-84 -90.5714 2137.14
-84.5878 -90.8961 2144.8
-85.1613 -90.8961 2144.8
-85.7348 -90.8961 2144.8
-86.3082 -90.8961 2144.8
-86.8817 -90.8961 2144.8
-87.4552 -90.8961 2144.8
-88.0287 -90.8961 2144.8
-88.6022 -90.8961 2144.8
-89.1756 -90.8961 2144.8
-89.7491 -90.8961 2144.8
-90.3226 -90.8961 2144.8
-90.8961 -90.8961 2144.8
-91.4695 -90.8961 2144.8
-92.0863 -91.223 2152.52
-92.6619 -91.223 2152.52
-93.2374 -91.223 2152.52
-93.8129 -91.223 2152.52
-94.3885 -91.223 2152.52
-94.964 -91.223 2152.52
-95.5396 -91.223 2152.52
-96.1151 -91.223 2152.52
-96.6906 -91.223 2152.52
-97.3285 -91.5523 2160.29
-97.9061 -91.5523 2160.29
-98.4838 -91.5523 2160.29
-99.0614 -91.5523 2160.29
-99.639 -91.5523 2160.29
-100.217 -91.5523 2160.29
-100.794 -91.5523 2160.29
-101.449 -91.8841 2168.12
-102.029 -91.8841 2168.12
-102.527 -91.5523 2160.29
-103.022 -91.223 2152.52
-103.597 -91.223 2152.52
-104.086 -90.8961 2144.8
-104.397 -89.9291 2121.99
-104.965 -89.9291 2121.99
-105.532 -89.9291 2121.99
-106.007 -89.6113 2114.49
-106.572 -89.6113 2114.49
-107.138 -89.6113 2114.49
-107.703 -89.6113 2114.49
-108.269 -89.6113 2114.49
-108.834 -89.6113 2114.49
-109.399 -89.6113 2114.49
-109.965 -89.6113 2114.49
-110.638 -89.9291 2121.99
-111.206 -89.9291 2121.99
-111.773 -89.9291 2121.99
-112.34 -89.9291 2121.99
-112.792 -89.6113 2114.49
-113.714 -90.5714 2137.14
-113.922 -89.6113 2114.49
-114.61 -89.9291 2121.99
-115.429 -90.5714 2137.14
-115.872 -90.2491 2129.54
-116.184 -89.6113 2114.49
-116.749 -89.6113 2114.49
-117.314 -89.6113 2114.49
-117.88 -89.6113 2114.49
-118.445 -89.6113 2114.49
-119.011 -89.6113 2114.49
-119.576 -89.6113 2114.49
-120.141 -89.6113 2114.49
-120.707 -89.6113 2114.49
-121.272 -89.6113 2114.49
-121.837 -89.6113 2114.49
-122.403 -89.6113 2114.49
-122.968 -89.6113 2114.49
-123.534 -89.6113 2114.49
-124.099 -89.6113 2114.49
-124.664 -89.6113 2114.49
-125.23 -89.6113 2114.49
-125.795 -89.6113 2114.49
-126.36 -89.6113 2114.49
-126.926 -89.6113 2114.49
-127.491 -89.6113 2114.49
-128.057 -89.6113 2114.49
-128.622 -89.6113 2114.49
-129.187 -89.6113 2114.49
-129.753 -89.6113 2114.49
-130.318 -89.6113 2114.49
-130.883 -89.6113 2114.49
-131.449 -89.6113 2114.49
-132.014 -89.6113 2114.49
-132.58 -89.6113 2114.49
-133.145 -89.6113 2114.49
-134.286 -90.5714 2137.14
-135.054 -90.8961 2144.8
-136.232 -91.8841 2168.12
-137.226 -92.5547 2183.94
-138.022 -92.8938 2191.94
-138.608 -92.8938 2191.94
-138.978 -92.5547 2183.94
-139.345 -92.2182 2176
-147.265 -103.51 2442.45
-146.827 -101.847 2403.21
-147.2 -101.44 2393.6
-146.51 -99.451 2346.67
-147.937 -100.635 2374.6
-145.954 -96.7939 2283.97
-150.607 -102.672 2422.67
-153.029 -105.228 2482.99
-156.883 -109.784 2590.48
-153.745 -104.362 2462.55
-165.283 -119.623 2822.64
-167.273 -121.34 2863.16
-168.038 -121.34 2863.16
-163.604 -114.234 2695.5
-167.477 -118.505 2796.26
-158.667 -105.667 2493.33
-155.857 -101.036 2384.06
-155 -99.0625 2337.5
-154.462 -97.5385 2301.54
-151.502 -92.8938 2191.94
-151.304 -91.8841 2168.12
-151.884 -91.8841 2168.12
-150.671 -89.6113 2114.49
-151.744 -90.2491 2129.54
-151.802 -89.6113 2114.49
-152.367 -89.6113 2114.49
-152.933 -89.6113 2114.49
-153.498 -89.6113 2114.49
-154.064 -89.6113 2114.49
-154.629 -89.6113 2114.49
-155.194 -89.6113 2114.49
-155.76 -89.6113 2114.49
-156.325 -89.6113 2114.49
-156.89 -89.6113 2114.49
-157.456 -89.6113 2114.49
-158.021 -89.6113 2114.49
-158.587 -89.6113 2114.49
-159.152 -89.6113 2114.49
-159.717 -89.6113 2114.49
-160.283 -89.6113 2114.49
-160.848 -89.6113 2114.49
-161.413 -89.6113 2114.49
-161.979 -89.6113 2114.49
-162.544 -89.6113 2114.49
-163.11 -89.6113 2114.49
-163.675 -89.6113 2114.49
-164.24 -89.6113 2114.49
-165.106 -89.9291 2121.99
-168.498 -92.8938 2191.94
-167.482 -91.223 2152.52
-179.109 -102.672 2422.67
-183.096 -106.109 2503.77
-202.167 -124.926 2947.78
-194.182 -115.273 2720
-205.771 -126.169 2977.11
-201.722 -121.34 2863.16
-211.343 -126.169 2977.11
-210.837 -124.926 2947.78
-209.082 -122.512 2890.82
-209.231 -121.923 2876.92
-205.767 -117.953 2783.26
-204.771 -116.33 2744.95
-202.143 -113.214 2671.43
-199.134 -109.784 2590.48
-194.855 -105.228 2482.99
-181.236 -92.2182 2176
-180.358 -90.8961 2144.8
-179.505 -89.6113 2114.49
-180.071 -89.6113 2114.49
-180.636 -89.6113 2114.49
-181.201 -89.6113 2114.49
-181.767 -89.6113 2114.49
-182.332 -89.6113 2114.49
-182.898 -89.6113 2114.49
-183.463 -89.6113 2114.49
-184.028 -89.6113 2114.49
-184.594 -89.6113 2114.49
-185.159 -89.6113 2114.49
-185.724 -89.6113 2114.49
-186.29 -89.6113 2114.49
-186.855 -89.6113 2114.49
-187.42 -89.6113 2114.49
-187.986 -89.6113 2114.49
-188.551 -89.6113 2114.49
-189.117 -89.6113 2114.49
-189.682 -89.6113 2114.49
-190.247 -89.6113 2114.49
-190.813 -89.6113 2114.49
-191.378 -89.6113 2114.49
-191.943 -89.6113 2114.49
-192.908 -89.9291 2121.99
-193.475 -89.9291 2121.99
-194.043 -89.9291 2121.99
-195.429 -90.5714 2137.14
-195.587 -90.2491 2129.54
-196.571 -90.5714 2137.14
-197.143 -90.5714 2137.14
-197.714 -90.5714 2137.14
-198.71 -90.8961 2144.8
-198.857 -90.5714 2137.14
-199.857 -90.8961 2144.8
-200.863 -91.223 2152.52
-203.212 -92.5547 2183.94
-203.796 -92.5547 2183.94
-216.867 -101.847 2403.21
-225.085 -107.458 2535.59
-234.26 -113.722 2683.41
50.963 -93.3333 2216.3
50.3704 -93.3333 2216.3
49.7778 -93.3333 2216.3
49.1852 -93.3333 2216.3
48.5926 -93.3333 2216.3
48 -93.3333 2216.3
47.4074 -93.3333 2216.3
46.8148 -93.3333 2216.3
46.2222 -93.3333 2216.3
45.6296 -93.3333 2216.3
45.037 -93.3333 2216.3
44.4444 -93.3333 2216.3
43.3948 -92.9889 2208.12
42.8044 -92.9889 2208.12
42.214 -92.9889 2208.12
41.6236 -92.9889 2208.12
41.0332 -92.9889 2208.12
40.4428 -92.9889 2208.12
39.8524 -92.9889 2208.12
39.262 -92.9889 2208.12
38.6716 -92.9889 2208.12
38.0812 -92.9889 2208.12
37.4908 -92.9889 2208.12
36.9004 -92.9889 2208.12
36.31 -92.9889 2208.12
35.2941 -92.6471 2200
34.7059 -92.6471 2200
34.1176 -92.6471 2200
33.5294 -92.6471 2200
32.9412 -92.6471 2200
32.3529 -92.6471 2200
31.7647 -92.6471 2200
31.1765 -92.6471 2200
30.1832 -92.3077 2191.94
29.5971 -92.3077 2191.94
29.4118 -92.6471 2200
28.4249 -92.3077 2191.94
27.8388 -92.3077 2191.94
27.2527 -92.3077 2191.94
26.6667 -92.3077 2191.94
26.0806 -92.3077 2191.94
25.4945 -92.3077 2191.94
24.9084 -92.3077 2191.94
24.3223 -92.3077 2191.94
23.7363 -92.3077 2191.94
23.1502 -92.3077 2191.94
22.5641 -92.3077 2191.94
21.6058 -91.9708 2183.94
21.0219 -91.9708 2183.94
20.438 -91.9708 2183.94
19.854 -91.9708 2183.94
19.2701 -91.9708 2183.94
18.6861 -91.9708 2183.94
18.1022 -91.9708 2183.94
17.5182 -91.9708 2183.94
16.9343 -91.9708 2183.94
16.3504 -91.9708 2183.94
15.4182 -91.6364 2176
14.8364 -91.6364 2176
14.2545 -91.6364 2176
13.6727 -91.6364 2176
13.0909 -91.6364 2176
12.5091 -91.6364 2176
11.9273 -91.6364 2176
11.3455 -91.6364 2176
10.7636 -91.6364 2176
10.1818 -91.6364 2176
9.6 -91.6364 2176
9.01818 -91.6364 2176
8.43636 -91.6364 2176
7.85455 -91.6364 2176
6.95652 -91.3043 2168.12
6.69091 -91.6364 2176
5.7971 -91.3043 2168.12
5.21739 -91.3043 2168.12
4.63768 -91.3043 2168.12
4.05797 -91.3043 2168.12
3.47826 -91.3043 2168.12
2.89855 -91.3043 2168.12
2.31884 -91.3043 2168.12
1.44404 -90.9747 2160.29
0.866426 -90.9747 2160.29
0.288809 -90.9747 2160.29
-0.288809 -90.9747 2160.29
-0.866426 -90.9747 2160.29
-1.44404 -90.9747 2160.29
-2.02166 -90.9747 2160.29
-2.59928 -90.9747 2160.29
-3.45324 -90.6475 2152.52
-4.02878 -90.6475 2152.52
-4.33213 -90.9747 2160.29
-5.17986 -90.6475 2152.52
-5.7554 -90.6475 2152.52
-6.33094 -90.6475 2152.52
-6.90647 -90.6475 2152.52
-7.48201 -90.6475 2152.52
-8.05755 -90.6475 2152.52
-8.63309 -90.6475 2152.52
-9.20863 -90.6475 2152.52
-9.78417 -90.6475 2152.52
-10.3597 -90.6475 2152.52
-10.9353 -90.6475 2152.52
-11.5108 -90.6475 2152.52
-12.3297 -90.3226 2144.8
-12.9032 -90.3226 2144.8
-13.4767 -90.3226 2144.8
-14.0502 -90.3226 2144.8
-14.6237 -90.3226 2144.8
-15.1971 -90.3226 2144.8
-15.7706 -90.3226 2144.8
-16.3441 -90.3226 2144.8
-16.9176 -90.3226 2144.8
-17.491 -90.3226 2144.8
-18.2857 -90 2137.14
-18.638 -90.3226 2144.8
-19.2115 -90.3226 2144.8
-20 -90 2137.14
-20.5714 -90 2137.14
-21.1429 -90 2137.14
-21.7143 -90 2137.14
-22.2857 -90 2137.14
-22.8571 -90 2137.14
-23.4286 -90 2137.14
-24 -90 2137.14
-24.5714 -90 2137.14
-25.1429 -90 2137.14
-25.7143 -90 2137.14
-26.2857 -90 2137.14
-27.0463 -89.6797 2129.54
-27.6157 -89.6797 2129.54
-28.1851 -89.6797 2129.54
-28.7544 -89.6797 2129.54
-29.3238 -89.6797 2129.54
-29.8932 -89.6797 2129.54
-30.4626 -89.6797 2129.54
-31.032 -89.6797 2129.54
-31.6014 -89.6797 2129.54
-32.1708 -89.6797 2129.54
-32.7402 -89.6797 2129.54
-33.3096 -89.6797 2129.54
-34.0426 -89.3617 2121.99
-34.6099 -89.3617 2121.99
-35.1773 -89.3617 2121.99
-35.7447 -89.3617 2121.99
-36.3121 -89.3617 2121.99
-36.8794 -89.3617 2121.99
-37.4468 -89.3617 2121.99
-38.0142 -89.3617 2121.99
-38.7279 -89.0459 2114.49
-39.2933 -89.0459 2114.49
-39.8587 -89.0459 2114.49
-40.424 -89.0459 2114.49
-40.9894 -89.0459 2114.49
-41.5548 -89.0459 2114.49
-42.1201 -89.0459 2114.49
-42.6855 -89.0459 2114.49
-43.2509 -89.0459 2114.49
-43.8163 -89.0459 2114.49
-44.3816 -89.0459 2114.49
-44.947 -89.0459 2114.49
-45.5124 -89.0459 2114.49
-46.1972 -88.7324 2107.04
-46.7606 -88.7324 2107.04
-47.3239 -88.7324 2107.04
-47.8873 -88.7324 2107.04
-48.4507 -88.7324 2107.04
-49.0141 -88.7324 2107.04
-49.5775 -88.7324 2107.04
-50.1408 -88.7324 2107.04
-50.7042 -88.7324 2107.04
-51.2676 -88.7324 2107.04
-51.831 -88.7324 2107.04
-52.3944 -88.7324 2107.04
-52.9577 -88.7324 2107.04
-53.5211 -88.7324 2107.04
-54.0845 -88.7324 2107.04
-54.6479 -88.7324 2107.04
-55.2113 -88.7324 2107.04
-55.7746 -88.7324 2107.04
-56.338 -88.7324 2107.04
-56.9014 -88.7324 2107.04
-57.4648 -88.7324 2107.04
-58.0282 -88.7324 2107.04
-58.5915 -88.7324 2107.04
-59.1549 -88.7324 2107.04
-59.7183 -88.7324 2107.04
-60.2817 -88.7324 2107.04
-60.8451 -88.7324 2107.04
-61.4085 -88.7324 2107.04
-61.9718 -88.7324 2107.04
-62.5352 -88.7324 2107.04
-63.0986 -88.7324 2107.04
-63.6042 -89.0459 2114.49
-64.1696 -89.0459 2114.49
-64.735 -89.0459 2114.49
-65.3004 -89.0459 2114.49
-65.8657 -89.0459 2114.49
-66.4311 -89.0459 2114.49
-66.9965 -89.0459 2114.49
-67.5618 -89.0459 2114.49
-68.1272 -89.0459 2114.49
-68.6926 -89.0459 2114.49
-69.2199 -89.3617 2121.99
-69.7872 -89.3617 2121.99
-70.3546 -89.3617 2121.99
-70.922 -89.3617 2121.99
-71.4894 -89.3617 2121.99
-72.0567 -89.3617 2121.99
-72.6241 -89.3617 2121.99
-73.1915 -89.3617 2121.99
-73.7589 -89.3617 2121.99
-74.306 -89.6797 2129.54
-74.8754 -89.6797 2129.54
-75.4448 -89.6797 2129.54
-76.0142 -89.6797 2129.54
-76.5836 -89.6797 2129.54
-77.153 -89.6797 2129.54
-77.7224 -89.6797 2129.54
-78.2918 -89.6797 2129.54
-78.8612 -89.6797 2129.54
-79.4286 -90 2137.14
-80 -90 2137.14
-80.5714 -90 2137.14
-81.1429 -90 2137.14
-81.7143 -90 2137.14
-82.2857 -90 2137.14
-82.8571 -90 2137.14
-83.4286 -90 2137.14
-84 -90 2137.14
-84.5714 -90 2137.14
-85.1429 -90 2137.14
-85.7348 -90.3226 2144.8
-86.3082 -90.3226 2144.8
-86.8817 -90.3226 2144.8
-87.4552 -90.3226 2144.8
-88.0287 -90.3226 2144.8
-88.6022 -90.3226 2144.8
-89.1756 -90.3226 2144.8
-89.7491 -90.3226 2144.8
-90.3226 -90.3226 2144.8
-90.8961 -90.3226 2144.8
-91.4695 -90.3226 2144.8
-92.0863 -90.6475 2152.52
-92.6619 -90.6475 2152.52
-93.2374 -90.6475 2152.52
-93.8129 -90.6475 2152.52
-94.3885 -90.6475 2152.52
-94.964 -90.6475 2152.52
-95.5396 -90.6475 2152.52
-96.1151 -90.6475 2152.52
-96.6906 -90.6475 2152.52
-97.3285 -90.9747 2160.29
-97.9061 -90.9747 2160.29
-98.4838 -90.9747 2160.29
-99.0614 -90.9747 2160.29
-99.639 -90.9747 2160.29
-100.217 -90.9747 2160.29
-100.794 -90.9747 2160.29
-101.449 -91.3043 2168.12
-102.029 -91.3043 2168.12
-102.527 -90.9747 2160.29
-103.105 -90.9747 2160.29
-103.597 -90.6475 2152.52
-104 -90 2137.14
-104.484 -89.6797 2129.54
-105.053 -89.6797 2129.54
-105.532 -89.3617 2121.99
-106.007 -89.0459 2114.49
-106.572 -89.0459 2114.49
-107.138 -89.0459 2114.49
-107.703 -89.0459 2114.49
-108.269 -89.0459 2114.49
-108.834 -89.0459 2114.49
-109.399 -89.0459 2114.49
-109.965 -89.0459 2114.49
-110.53 -89.0459 2114.49
-111.095 -89.0459 2114.49
-111.661 -89.0459 2114.49
-112.226 -89.0459 2114.49
-113.025 -89.6797 2129.54
-113.357 -89.0459 2114.49
-113.922 -89.0459 2114.49
-114.61 -89.3617 2121.99
-115.053 -89.0459 2114.49
-115.618 -89.0459 2114.49
-116.184 -89.0459 2114.49
-116.749 -89.0459 2114.49
-117.314 -89.0459 2114.49
-117.88 -89.0459 2114.49
-118.445 -89.0459 2114.49
-119.011 -89.0459 2114.49
-119.576 -89.0459 2114.49
-120.141 -89.0459 2114.49
-120.707 -89.0459 2114.49
-121.272 -89.0459 2114.49
-121.837 -89.0459 2114.49
-122.403 -89.0459 2114.49
-122.968 -89.0459 2114.49
-123.534 -89.0459 2114.49
-124.099 -89.0459 2114.49
-124.664 -89.0459 2114.49
-125.23 -89.0459 2114.49
-125.795 -89.0459 2114.49
-126.36 -89.0459 2114.49
-126.926 -89.0459 2114.49
-127.491 -89.0459 2114.49
-128.057 -89.0459 2114.49
-128.622 -89.0459 2114.49
-129.187 -89.0459 2114.49
-129.753 -89.0459 2114.49
-130.318 -89.0459 2114.49
-130.883 -89.0459 2114.49
-131.449 -89.0459 2114.49
-132.014 -89.0459 2114.49
-132.58 -89.0459 2114.49
-133.145 -89.0459 2114.49
-133.71 -89.0459 2114.49
-134.662 -89.6797 2129.54
-135.429 -90 2137.14
-136.201 -90.3226 2144.8
-136.978 -90.6475 2152.52
-137.554 -90.6475 2152.52
-138.129 -90.6475 2152.52
-138.495 -90.3226 2144.8
-139.927 -91.6364 2176
-144.247 -97.2973 2310.42
-144.615 -96.9231 2301.54
-144.981 -96.5517 2292.72
-144.848 -95.4545 2266.67
-145.954 -96.1832 2283.97
-146.82 -96.5517 2292.72
-146.92 -95.8175 2275.29
-152.49 -102.857 2442.45
-147.879 -95.4545 2266.67
-163.318 -116.129 2757.6
-165.634 -118.31 2809.39
-166.792 -118.868 2822.64
-163.229 -113.004 2683.41
-162.105 -110.526 2624.56
-157.377 -103.279 2452.46
-154.667 -98.8235 2346.67
-151.91 -94.382 2241.2
-151.439 -92.9889 2208.12
-150.469 -90.9747 2160.29
-150.538 -90.3226 2144.8
-151.367 -90.6475 2152.52
-150.671 -89.0459 2114.49
-151.237 -89.0459 2114.49
-151.802 -89.0459 2114.49
-152.367 -89.0459 2114.49
-152.933 -89.0459 2114.49
-153.498 -89.0459 2114.49
-154.064 -89.0459 2114.49
-154.629 -89.0459 2114.49
-155.194 -89.0459 2114.49
-155.76 -89.0459 2114.49
-156.325 -89.0459 2114.49
-156.89 -89.0459 2114.49
-157.456 -89.0459 2114.49
-158.021 -89.0459 2114.49
-158.587 -89.0459 2114.49
-159.152 -89.0459 2114.49
-159.717 -89.0459 2114.49
-160.283 -89.0459 2114.49
-160.848 -89.0459 2114.49
-161.413 -89.0459 2114.49
-161.979 -89.0459 2114.49
-162.544 -89.0459 2114.49
-163.11 -89.0459 2114.49
-163.675 -89.0459 2114.49
-164.24 -89.0459 2114.49
-166.957 -91.3043 2168.12
-165.371 -89.0459 2114.49
-175.373 -98.8235 2346.67
-178.71 -101.613 2412.9
-190.493 -113.004 2683.41
-202.167 -124.138 2947.78
-203.744 -124.138 2947.78
-205.771 -125.373 2977.11
-212.139 -125.373 2977.11
-210.98 -123.529 2933.33
-212.414 -124.138 2947.78
-210.628 -121.739 2890.82
-209.524 -120 2849.52
-204.932 -115.068 2732.42
-201.233 -111.013 2636.12
-184.06 -94.7368 2249.62
-188.75 -98.4375 2337.5
-180 -90 2137.14
-179.858 -89.3617 2121.99
-180.071 -89.0459 2114.49
-180.636 -89.0459 2114.49
-181.201 -89.0459 2114.49
-181.767 -89.0459 2114.49
-182.332 -89.0459 2114.49
-182.898 -89.0459 2114.49
-183.463 -89.0459 2114.49
-184.028 -89.0459 2114.49
-184.594 -89.0459 2114.49
-185.159 -89.0459 2114.49
-185.724 -89.0459 2114.49
-186.29 -89.0459 2114.49
-186.855 -89.0459 2114.49
-187.42 -89.0459 2114.49
-187.986 -89.0459 2114.49
-188.551 -89.0459 2114.49
-189.117 -89.0459 2114.49
-189.682 -89.0459 2114.49
-190.247 -89.0459 2114.49
-190.813 -89.0459 2114.49
-191.378 -89.0459 2114.49
-191.943 -89.0459 2114.49
-192.908 -89.3617 2121.99
-193.879 -89.6797 2129.54
-194.857 -90 2137.14
-196.259 -90.6475 2152.52
-197.256 -90.9747 2160.29
-198.261 -91.3043 2168.12
-198.841 -91.3043 2168.12
-200.292 -91.9708 2183.94
-200.436 -91.6364 2176
-201.46 -91.9708 2183.94
-201.6 -91.6364 2176
-202.628 -91.9708 2183.94
-205.97 -94.0299 2232.84
-209.466 -96.1832 2283.97
-214.173 -99.2126 2355.91
-231.504 -111.504 2647.79
-234.26 -113.004 2683.41
50.963 -92.7407 2216.3
50.3704 -92.7407 2216.3
49.7778 -92.7407 2216.3
49.1852 -92.7407 2216.3
48.5926 -92.7407 2216.3
48 -92.7407 2216.3
47.4074 -92.7407 2216.3
46.8148 -92.7407 2216.3
46.2222 -92.7407 2216.3
45.6296 -92.7407 2216.3
45.037 -92.7407 2216.3
43.9852 -92.3985 2208.12
43.8519 -92.7407 2216.3
43.2593 -92.7407 2216.3
42.214 -92.3985 2208.12
41.6236 -92.3985 2208.12
41.0332 -92.3985 2208.12
40.4428 -92.3985 2208.12
39.8524 -92.3985 2208.12
39.262 -92.3985 2208.12
38.6716 -92.3985 2208.12
38.0812 -92.3985 2208.12
37.4908 -92.3985 2208.12
36.9004 -92.3985 2208.12
36.31 -92.3985 2208.12
35.2941 -92.0588 2200
34.7059 -92.0588 2200
34.1176 -92.0588 2200
33.5294 -92.0588 2200
32.9412 -92.0588 2200
32.3529 -92.0588 2200
31.7647 -92.0588 2200
31.1765 -92.0588 2200
30.1832 -91.7216 2191.94
29.5971 -91.7216 2191.94
29.011 -91.7216 2191.94
28.4249 -91.7216 2191.94
27.8388 -91.7216 2191.94
27.2527 -91.7216 2191.94
26.6667 -91.7216 2191.94
26.0806 -91.7216 2191.94
25.4945 -91.7216 2191.94
24.9084 -91.7216 2191.94
24.3223 -91.7216 2191.94
23.7363 -91.7216 2191.94
23.1502 -91.7216 2191.94
22.1898 -91.3869 2183.94
21.6058 -91.3869 2183.94
21.0219 -91.3869 2183.94
20.438 -91.3869 2183.94
19.854 -91.3869 2183.94
19.2701 -91.3869 2183.94
18.6861 -91.3869 2183.94
18.1022 -91.3869 2183.94
17.5182 -91.3869 2183.94
16.9343 -91.3869 2183.94
16 -91.0545 2176
15.4182 -91.0545 2176
14.8364 -91.0545 2176
14.2545 -91.0545 2176
13.6727 -91.0545 2176
13.0909 -91.0545 2176
12.5091 -91.0545 2176
11.9273 -91.0545 2176
11.3455 -91.0545 2176
10.7636 -91.0545 2176
10.1818 -91.0545 2176
9.6 -91.0545 2176
9.01818 -91.0545 2176
8.43636 -91.0545 2176
7.85455 -91.0545 2176
7.27273 -91.0545 2176
6.37681 -90.7246 2168.12
5.7971 -90.7246 2168.12
5.21739 -90.7246 2168.12
4.63768 -90.7246 2168.12
4.05797 -90.7246 2168.12
3.47826 -90.7246 2168.12
2.89855 -90.7246 2168.12
2.31884 -90.7246 2168.12
1.73913 -90.7246 2168.12
0.866426 -90.3971 2160.29
0.288809 -90.3971 2160.29
-0.288809 -90.3971 2160.29
-0.866426 -90.3971 2160.29
-1.44404 -90.3971 2160.29
-2.02166 -90.3971 2160.29
-2.59928 -90.3971 2160.29
-3.1769 -90.3971 2160.29
-4.02878 -90.0719 2152.52
-4.33213 -90.3971 2160.29
-5.17986 -90.0719 2152.52
-5.7554 -90.0719 2152.52
-6.06498 -90.3971 2160.29
-6.90647 -90.0719 2152.52
-7.48201 -90.0719 2152.52
-8.05755 -90.0719 2152.52
-8.63309 -90.0719 2152.52
-9.20863 -90.0719 2152.52
-9.78417 -90.0719 2152.52
-10.3597 -90.0719 2152.52
-10.9353 -90.0719 2152.52
-11.5108 -90.0719 2152.52
-12.0863 -90.0719 2152.52
-12.9032 -89.7491 2144.8
-13.4767 -89.7491 2144.8
-14.0502 -89.7491 2144.8
-14.6237 -89.7491 2144.8
-15.1971 -89.7491 2144.8
-15.7706 -89.7491 2144.8
-16.3441 -89.7491 2144.8
-16.9176 -89.7491 2144.8
-17.7143 -89.4286 2137.14
-18.2857 -89.4286 2137.14
-18.8571 -89.4286 2137.14
-19.4286 -89.4286 2137.14
-20 -89.4286 2137.14
-20.5714 -89.4286 2137.14
-21.1429 -89.4286 2137.14
-21.7143 -89.4286 2137.14
-22.2857 -89.4286 2137.14
-22.8571 -89.4286 2137.14
-23.4286 -89.4286 2137.14
-24 -89.4286 2137.14
-24.5714 -89.4286 2137.14
-25.1429 -89.4286 2137.14
-25.7143 -89.4286 2137.14
-26.2857 -89.4286 2137.14
-27.0463 -89.1103 2129.54
-27.4286 -89.4286 2137.14
-28.1851 -89.1103 2129.54
-28.7544 -89.1103 2129.54
-29.3238 -89.1103 2129.54
-29.8932 -89.1103 2129.54
-30.4626 -89.1103 2129.54
-31.032 -89.1103 2129.54
-31.6014 -89.1103 2129.54
-32.1708 -89.1103 2129.54
-32.7402 -89.1103 2129.54
-33.3096 -89.1103 2129.54
-34.0426 -88.7943 2121.99
-34.6099 -88.7943 2121.99
-35.1773 -88.7943 2121.99
-35.7447 -88.7943 2121.99
-36.3121 -88.7943 2121.99
-36.8794 -88.7943 2121.99
-37.4468 -88.7943 2121.99
-38.0142 -88.7943 2121.99
-38.7279 -88.4806 2114.49
-39.2933 -88.4806 2114.49
-39.8587 -88.4806 2114.49
-40.424 -88.4806 2114.49
-40.9894 -88.4806 2114.49
-41.5548 -88.4806 2114.49
-42.1201 -88.4806 2114.49
-42.6855 -88.4806 2114.49
-43.2509 -88.4806 2114.49
-43.8163 -88.4806 2114.49
-44.3816 -88.4806 2114.49
-44.947 -88.4806 2114.49
-45.5124 -88.4806 2114.49
-46.1972 -88.169 2107.04
-46.7606 -88.169 2107.04
-47.3239 -88.169 2107.04
-47.8873 -88.169 2107.04
-48.4507 -88.169 2107.04
-49.0141 -88.169 2107.04
-49.5775 -88.169 2107.04
-50.1408 -88.169 2107.04
-50.7042 -88.169 2107.04
-51.2676 -88.169 2107.04
-51.831 -88.169 2107.04
-52.3944 -88.169 2107.04
-52.9577 -88.169 2107.04
-53.5211 -88.169 2107.04
-54.0845 -88.169 2107.04
-54.6479 -88.169 2107.04
-55.2113 -88.169 2107.04
-55.7746 -88.169 2107.04
-56.338 -88.169 2107.04
-56.9014 -88.169 2107.04
-57.4648 -88.169 2107.04
-58.0282 -88.169 2107.04
-58.5915 -88.169 2107.04
-59.1549 -88.169 2107.04
-59.7183 -88.169 2107.04
-60.2817 -88.169 2107.04
-60.8451 -88.169 2107.04
-61.4085 -88.169 2107.04
-61.9718 -88.169 2107.04
-62.5352 -88.169 2107.04
-63.0986 -88.169 2107.04
-63.662 -88.169 2107.04
-64.1696 -88.4806 2114.49
-64.735 -88.4806 2114.49
-65.3004 -88.4806 2114.49
-65.8657 -88.4806 2114.49
-66.4311 -88.4806 2114.49
-66.9965 -88.4806 2114.49
-67.5618 -88.4806 2114.49
-68.1272 -88.4806 2114.49
-68.6926 -88.4806 2114.49
-69.2199 -88.7943 2121.99
-69.7872 -88.7943 2121.99
-70.3546 -88.7943 2121.99
-70.922 -88.7943 2121.99
-71.4894 -88.7943 2121.99
-72.0567 -88.7943 2121.99
-72.6241 -88.7943 2121.99
-73.1915 -88.7943 2121.99
-73.7589 -88.7943 2121.99
-74.306 -89.1103 2129.54
-74.8754 -89.1103 2129.54
-75.4448 -89.1103 2129.54
-76.0142 -89.1103 2129.54
-76.5836 -89.1103 2129.54
-77.153 -89.1103 2129.54
-77.7224 -89.1103 2129.54
-78.2918 -89.1103 2129.54
-78.8612 -89.1103 2129.54
-79.4306 -89.1103 2129.54
-80 -89.4286 2137.14
-80.5714 -89.4286 2137.14
-81.1429 -89.4286 2137.14
-81.7143 -89.4286 2137.14
-82.2857 -89.4286 2137.14
-82.8571 -89.4286 2137.14
-83.4286 -89.4286 2137.14
-84 -89.4286 2137.14
-84.5714 -89.4286 2137.14
-85.1429 -89.4286 2137.14
-85.7143 -89.4286 2137.14
-86.3082 -89.7491 2144.8
-86.8817 -89.7491 2144.8
-87.4552 -89.7491 2144.8
-88.0287 -89.7491 2144.8
-88.6022 -89.7491 2144.8
-89.1756 -89.7491 2144.8
-89.7491 -89.7491 2144.8
-90.3226 -89.7491 2144.8
-90.8961 -89.7491 2144.8
-91.4695 -89.7491 2144.8
-92.0863 -90.0719 2152.52
-92.6619 -90.0719 2152.52
-93.2374 -90.0719 2152.52
-93.8129 -90.0719 2152.52
-94.3885 -90.0719 2152.52
-94.964 -90.0719 2152.52
-95.5396 -90.0719 2152.52
-96.1151 -90.0719 2152.52
-96.6906 -90.0719 2152.52
-97.3285 -90.3971 2160.29
-97.9061 -90.3971 2160.29
-98.4838 -90.3971 2160.29
-99.0614 -90.3971 2160.29
-99.639 -90.3971 2160.29
-100.217 -90.3971 2160.29
-100.794 -90.3971 2160.29
-101.449 -90.7246 2168.12
-102.029 -90.7246 2168.12
-102.527 -90.3971 2160.29
-103.105 -90.3971 2160.29
-103.597 -90.0719 2152.52
-104.086 -89.7491 2144.8
-104.571 -89.4286 2137.14
-104.965 -88.7943 2121.99
-105.532 -88.7943 2121.99
-106.007 -88.4806 2114.49
-106.572 -88.4806 2114.49
-107.138 -88.4806 2114.49
-107.703 -88.4806 2114.49
-108.269 -88.4806 2114.49
-108.834 -88.4806 2114.49
-109.399 -88.4806 2114.49
-109.965 -88.4806 2114.49
-110.53 -88.4806 2114.49
-111.095 -88.4806 2114.49
-111.661 -88.4806 2114.49
-112.226 -88.4806 2114.49
-112.908 -88.7943 2121.99
-113.475 -88.7943 2121.99
-113.922 -88.4806 2114.49
-114.488 -88.4806 2114.49
-115.053 -88.4806 2114.49
-115.618 -88.4806 2114.49
-116.184 -88.4806 2114.49
-116.749 -88.4806 2114.49
-117.314 -88.4806 2114.49
-117.88 -88.4806 2114.49
-118.445 -88.4806 2114.49
-119.011 -88.4806 2114.49
-119.576 -88.4806 2114.49
-120.141 -88.4806 2114.49
-120.707 -88.4806 2114.49
-121.272 -88.4806 2114.49
-121.837 -88.4806 2114.49
-122.403 -88.4806 2114.49
-122.968 -88.4806 2114.49
-123.534 -88.4806 2114.49
-124.099 -88.4806 2114.49
-124.664 -88.4806 2114.49
-125.23 -88.4806 2114.49
-125.795 -88.4806 2114.49
-126.36 -88.4806 2114.49
-126.926 -88.4806 2114.49
-127.491 -88.4806 2114.49
-128.057 -88.4806 2114.49
-128.622 -88.4806 2114.49
-129.187 -88.4806 2114.49
-129.753 -88.4806 2114.49
-130.318 -88.4806 2114.49
-130.883 -88.4806 2114.49
-131.449 -88.4806 2114.49
-132.014 -88.4806 2114.49
-132.58 -88.4806 2114.49
-133.145 -88.4806 2114.49
-133.71 -88.4806 2114.49
-134.468 -88.7943 2121.99
-134.841 -88.4806 2114.49
-135.603 -88.7943 2121.99
-136.37 -89.1103 2129.54
-136.738 -88.7943 2121.99
-137.509 -89.1103 2129.54
-137.872 -88.7943 2121.99
-139.71 -90.7246 2168.12
-142.09 -93.4328 2232.84
-142.921 -93.7828 2241.2
-143.048 -93.0855 2224.54
-144.12 -93.7828 2241.2
-144.478 -93.4328 2232.84
-146.061 -94.8485 2266.67
-148.217 -97.0543 2319.38
-146.517 -93.7828 2241.2
-149.457 -97.0543 2319.38
-156.61 -106.102 2535.59
-162.909 -113.818 2720
-164.404 -114.862 2744.95
-163.982 -113.303 2707.69
-155.789 -101.377 2422.67
-152.337 -95.9387 2292.72
-151.579 -94.1353 2249.62
-149.565 -90.7246 2168.12
-149.64 -90.0719 2152.52
-148.975 -88.4806 2114.49
-150.286 -89.4286 2137.14
-150.355 -88.7943 2121.99
-150.671 -88.4806 2114.49
-151.237 -88.4806 2114.49
-151.802 -88.4806 2114.49
-152.367 -88.4806 2114.49
-152.933 -88.4806 2114.49
-153.498 -88.4806 2114.49
-154.064 -88.4806 2114.49
-154.629 -88.4806 2114.49
-155.194 -88.4806 2114.49
-155.76 -88.4806 2114.49
-156.325 -88.4806 2114.49
-156.89 -88.4806 2114.49
-157.456 -88.4806 2114.49
-158.021 -88.4806 2114.49
-158.587 -88.4806 2114.49
-159.152 -88.4806 2114.49
-159.717 -88.4806 2114.49
-160.283 -88.4806 2114.49
-160.848 -88.4806 2114.49
-161.413 -88.4806 2114.49
-161.979 -88.4806 2114.49
-162.544 -88.4806 2114.49
-163.11 -88.4806 2114.49
-163.675 -88.4806 2114.49
-164.84 -89.1103 2129.54
-166.331 -90.0719 2152.52
-167.855 -91.0545 2176
-184.378 -107.468 2568.24
-190.769 -113.303 2707.69
-195.681 -117.559 2809.39
-202.772 -123.96 2962.38
-202.956 -123.35 2947.78
-213.731 -124.577 2977.11
-213.861 -123.96 2962.38
-212.039 -121.553 2904.85
-204.932 -114.338 2732.42
-202.311 -111.289 2659.56
-196.303 -105.21 2514.29
-182.731 -92.3985 2208.12
-181.449 -90.7246 2168.12
-179.858 -88.7943 2121.99
-180.071 -88.4806 2114.49
-180.636 -88.4806 2114.49
-181.201 -88.4806 2114.49
-181.767 -88.4806 2114.49
-182.332 -88.4806 2114.49
-182.898 -88.4806 2114.49
-183.463 -88.4806 2114.49
-184.028 -88.4806 2114.49
-184.594 -88.4806 2114.49
-185.159 -88.4806 2114.49
-185.724 -88.4806 2114.49
-186.29 -88.4806 2114.49
-186.855 -88.4806 2114.49
-187.42 -88.4806 2114.49
-187.986 -88.4806 2114.49
-188.551 -88.4806 2114.49
-189.117 -88.4806 2114.49
-189.682 -88.4806 2114.49
-190.247 -88.4806 2114.49
-190.813 -88.4806 2114.49
-191.378 -88.4806 2114.49
-191.943 -88.4806 2114.49
-192.908 -88.7943 2121.99
-194.286 -89.4286 2137.14
-196.101 -90.3971 2160.29
-197.527 -91.0545 2176
-200.743 -93.0855 2224.54
-202.707 -94.1353 2249.62
-204.242 -94.8485 2266.67
-204.848 -94.8485 2266.67
-204.511 -94.1353 2249.62
-204.644 -93.7828 2241.2
-204.312 -93.0855 2224.54
-206.316 -94.1353 2249.62
-205.037 -92.7407 2216.3
-205.166 -92.3985 2208.12
-237.051 -115.392 2757.6
-243.033 -118.673 2836.02
50.963 -92.1481 2216.3
50.3704 -92.1481 2216.3
49.7778 -92.1481 2216.3
49.1852 -92.1481 2216.3
48.5926 -92.1481 2216.3
48 -92.1481 2216.3
47.4074 -92.1481 2216.3
46.8148 -92.1481 2216.3
46.2222 -92.1481 2216.3
45.6296 -92.1481 2216.3
45.037 -92.1481 2216.3
43.9852 -91.8081 2208.12
43.3948 -91.8081 2208.12
42.8044 -91.8081 2208.12
42.214 -91.8081 2208.12
41.6236 -91.8081 2208.12
41.0332 -91.8081 2208.12
40.4428 -91.8081 2208.12
39.8524 -91.8081 2208.12
39.262 -91.8081 2208.12
38.6716 -91.8081 2208.12
38.0812 -91.8081 2208.12
37.4908 -91.8081 2208.12
36.9004 -91.8081 2208.12
36.31 -91.8081 2208.12
35.2941 -91.4706 2200
34.7059 -91.4706 2200
34.1176 -91.4706 2200
33.5294 -91.4706 2200
32.9412 -91.4706 2200
32.3529 -91.4706 2200
31.7647 -91.4706 2200
31.1765 -91.4706 2200
30.1832 -91.1355 2191.94
29.5971 -91.1355 2191.94
29.011 -91.1355 2191.94
28.4249 -91.1355 2191.94
27.8388 -91.1355 2191.94
27.2527 -91.1355 2191.94
26.6667 -91.1355 2191.94
26.0806 -91.1355 2191.94
25.4945 -91.1355 2191.94
24.9084 -91.1355 2191.94
24.3223 -91.1355 2191.94
23.7363 -91.1355 2191.94
23.1502 -91.1355 2191.94
22.1898 -90.8029 2183.94
21.6058 -90.8029 2183.94
21.0219 -90.8029 2183.94
20.438 -90.8029 2183.94
19.854 -90.8029 2183.94
19.2701 -90.8029 2183.94
18.6861 -90.8029 2183.94
18.1022 -90.8029 2183.94
17.5182 -90.8029 2183.94
16.9343 -90.8029 2183.94
16 -90.4727 2176
15.4182 -90.4727 2176
14.8364 -90.4727 2176
14.2545 -90.4727 2176
13.6727 -90.4727 2176
13.0909 -90.4727 2176
12.5091 -90.4727 2176
11.9273 -90.4727 2176
11.3455 -90.4727 2176
10.7636 -90.4727 2176
10.1818 -90.4727 2176
9.6 -90.4727 2176
9.01818 -90.4727 2176
8.43636 -90.4727 2176
7.53623 -90.1449 2168.12
6.95652 -90.1449 2168.12
6.37681 -90.1449 2168.12
5.7971 -90.1449 2168.12
5.21739 -90.1449 2168.12
4.63768 -90.1449 2168.12
4.05797 -90.1449 2168.12
3.47826 -90.1449 2168.12
2.89855 -90.1449 2168.12
2.31884 -90.1449 2168.12
1.44404 -89.8195 2160.29
0.866426 -89.8195 2160.29
0.288809 -89.8195 2160.29
-0.288809 -89.8195 2160.29
-0.866426 -89.8195 2160.29
-1.44404 -89.8195 2160.29
-2.30216 -89.4964 2152.52
-2.8777 -89.4964 2152.52
-3.45324 -89.4964 2152.52
-4.02878 -89.4964 2152.52
-4.60432 -89.4964 2152.52
-5.17986 -89.4964 2152.52
-5.7554 -89.4964 2152.52
-6.33094 -89.4964 2152.52
-6.90647 -89.4964 2152.52
-7.48201 -89.4964 2152.52
-8.05755 -89.4964 2152.52
-8.63309 -89.4964 2152.52
-9.20863 -89.4964 2152.52
-9.78417 -89.4964 2152.52
-10.6093 -89.1756 2144.8
-11.1828 -89.1756 2144.8
-11.7563 -89.1756 2144.8
-12.3297 -89.1756 2144.8
-12.9032 -89.1756 2144.8
-13.4767 -89.1756 2144.8
-14.0502 -89.1756 2144.8
-14.6237 -89.1756 2144.8
-15.1971 -89.1756 2144.8
-15.7706 -89.1756 2144.8
-16.3441 -89.1756 2144.8
-16.9176 -89.1756 2144.8
-17.7143 -88.8571 2137.14
-18.0645 -89.1756 2144.8
-18.8571 -88.8571 2137.14
-19.4286 -88.8571 2137.14
-20 -88.8571 2137.14
-20.5714 -88.8571 2137.14
-21.1429 -88.8571 2137.14
-21.7143 -88.8571 2137.14
-22.2857 -88.8571 2137.14
-22.8571 -88.8571 2137.14
-23.4286 -88.8571 2137.14
-24 -88.8571 2137.14
-24.5714 -88.8571 2137.14
-25.3381 -88.5409 2129.54
-25.7143 -88.8571 2137.14
-26.4769 -88.5409 2129.54
-27.0463 -88.5409 2129.54
-27.6157 -88.5409 2129.54
-28.1851 -88.5409 2129.54
-28.7544 -88.5409 2129.54
-29.3238 -88.5409 2129.54
-29.8932 -88.5409 2129.54
-30.4626 -88.5409 2129.54
-31.032 -88.5409 2129.54
-31.6014 -88.5409 2129.54
-32.1708 -88.5409 2129.54
-32.7402 -88.5409 2129.54
-33.3096 -88.5409 2129.54
-34.0426 -88.227 2121.99
-34.6099 -88.227 2121.99
-35.1773 -88.227 2121.99
-35.7447 -88.227 2121.99
-36.3121 -88.227 2121.99
-36.8794 -88.227 2121.99
-37.4468 -88.227 2121.99
-38.1625 -87.9152 2114.49
-38.7279 -87.9152 2114.49
-39.2933 -87.9152 2114.49
-39.8587 -87.9152 2114.49
-40.424 -87.9152 2114.49
-40.9894 -87.9152 2114.49
-41.5548 -87.9152 2114.49
-42.1201 -87.9152 2114.49
-42.6855 -87.9152 2114.49
-43.2509 -87.9152 2114.49
-43.8163 -87.9152 2114.49
-44.3816 -87.9152 2114.49
-44.947 -87.9152 2114.49
-45.5124 -87.9152 2114.49
-46.1972 -87.6056 2107.04
-46.7606 -87.6056 2107.04
-47.3239 -87.6056 2107.04
-47.8873 -87.6056 2107.04
-48.4507 -87.6056 2107.04
-49.0141 -87.6056 2107.04
-49.5775 -87.6056 2107.04
-50.1408 -87.6056 2107.04
-50.7042 -87.6056 2107.04
-51.2676 -87.6056 2107.04
-51.831 -87.6056 2107.04
-52.3944 -87.6056 2107.04
-52.9577 -87.6056 2107.04
-53.5211 -87.6056 2107.04
-54.0845 -87.6056 2107.04
-54.6479 -87.6056 2107.04
-55.2113 -87.6056 2107.04
-55.7746 -87.6056 2107.04
-56.338 -87.6056 2107.04
-56.9014 -87.6056 2107.04
-57.4648 -87.6056 2107.04
-58.0282 -87.6056 2107.04
-58.5915 -87.6056 2107.04
-59.1549 -87.6056 2107.04
-59.7183 -87.6056 2107.04
-60.2817 -87.6056 2107.04
