-145.7742500000 -32.3663750000 1952.3750000000 0.8216261298 0.5697982762 0.0161377585
-259.5000000000 -99.5000000000 1870.0000000000 -0.1269207011 0.9912224900 -0.0370014990
-141.5730000000 -28.7640000000 1680.9000000000 0.7816252072 0.5967271512 -0.1816005025
-250.2360000000 -116.9020000000 2014.8100000000 0.7111497756 -0.7029573946 0.0108119376
-147.0660000000 -29.9401500000 1791.6200000000 -0.4605797966 -0.8303804523 -0.3135834105
-49.4035000000 39.5789500000 2099.6500000000 0.9756887065 -0.2187414197 0.0135550490
157.6576666667 -162.5226666667 2021.6200000000 0.9690990950 -0.1864148262 -0.1615439774
-165.9582222222 -31.4718666667 2110.3511111111 -0.5996666556 -0.7652936049 -0.2339350348
-49.3380000000 37.0731500000 2085.0200000000 0.9759557190 -0.2179682062 -0.0005436860
-166.8897000000 -31.9430600000 2129.5400000000 -0.2251660125 -0.9721528851 -0.0649540983
-322.7220000000 139.5698333333 1673.0733333333 0.9908342416 0.0736415318 0.1132450016
-49.7595000000 39.0378000000 2056.3600000000 0.9744042532 -0.2235661264 -0.0235486409
19.4012000000 -206.9460000000 1791.6200000000 -0.1038764783 -0.9337747357 -0.3424535301
-167.0940000000 -33.4639666667 2141.3955555556 -0.4490095703 -0.5455963155 -0.7076122288
-49.6552000000 38.6207000000 2063.4500000000 0.9747938957 -0.2231049130 -0.0010289417
-168.2199487179 -35.4768461538 2152.5200000000 0.1218467068 0.0173067219 -0.9923980338
-176.7063333333 -32.8526000000 2082.6066666667 -0.5604524564 0.8261855888 -0.0575362240
234.6307142857 -24.0883000000 1849.3614285714 0.0015050499 -0.9998141530 -0.0192196304
-175.3656000000 -33.3591400000 2052.1360000000 0.7349038185 -0.6152328377 -0.2853154973
146.1678869048 188.4708353175 1532.4729761905 -0.7098573136 -0.2209797532 -0.6687828818
-207.9495000000 38.9937300000 1881.7600000000 -0.7299074530 -0.5721920777 -0.3739402842
-168.8310000000 -247.7920000000 1942.8600000000 0.9622975124 -0.2687882787 -0.0416696399
-370.5036666667 -30.1822333333 1924.1200000000 -0.7749375269 -0.6074753555 -0.1744864519
-171.2030000000 -33.2117500000 1971.6700000000 -0.1375325322 -0.3705188722 -0.9185861788
156.6774426230 -110.8048606557 1973.6945901639 0.8310578022 -0.2108643664 -0.5146641122
-161.1106666667 -28.1222666667 1660.6866666667 0.1749185219 -0.2240395230 -0.9587542974
-329.4656666667 144.1220000000 1712.9766666667 0.8935051726 0.4409908278 0.0847088914
12.0128000000 -221.3420000000 1911.8200000000 0.2290574686 0.9675951493 0.1062652492
-160.8840000000 -27.8453000000 1653.0400000000 -0.2540662434 -0.5388126957 -0.8032006119
-355.0155000000 -132.6170000000 2031.9200000000 -0.9090502318 0.3878897876 -0.1522142857
251.5320000000 -23.0631000000 1797.0000000000 -0.0134634467 0.9998136769 0.0138328238
-198.4247500000 -32.0476166667 2143.5233333333 -0.5040645530 0.8406827025 -0.1979179630
-406.0856666667 -1.7400800000 1951.3133333333 0.5544471062 0.8258613929 0.1026711551
-204.3505166052 -31.9498830258 2152.5200000000 0.9798052336 0.0172403580 -0.1992096241
-406.3575000000 -2.3841100000 1981.4600000000 0.5767347094 0.8150327710 0.0556655830
-209.0592698413 -31.9673269841 2141.6387301587 0.9559334225 -0.1988136344 -0.2160195142
-405.6233333333 -2.9847733333 1970.5866666667 0.6120926615 0.7875615653 0.0713397129
-209.7082000000 -31.4021350000 2129.5400000000 0.9561669863 -0.0371822363 -0.2904516753
-171.8508000000 -140.4680000000 1902.1000000000 0.9657384294 0.2399391917 0.0988861480
-210.3910000000 -34.8280000000 2129.5400000000 0.9302229201 -0.1607938051 -0.3298949395
-254.4960909091 -31.0009181818 2014.8100000000 0.9890690606 -0.1080478214 0.1003397313
-272.1890252101 -31.1782336134 2092.3100000000 0.3385912743 0.0173764781 -0.9407730901
-295.2026000000 -31.7754800000 1904.5200000000 0.6614744938 0.7488717335 -0.0405292590
-337.2795128205 -61.1451239316 1588.2633333333 -0.6675695306 0.1144320029 -0.7357011883
-363.8513750000 -33.3784000000 2021.6200000000 -0.2847898625 0.9576378107 -0.0427148410
-336.1621111111 -65.4095555556 1602.3833333333 -0.5036962522 -0.6119306845 -0.6097794051
171.1690000000 -50.9090833333 1942.8600000000 0.9901160393 0.0294767013 -0.1371180249
-364.1384615385 -32.6856846154 2032.1853846154 -0.2881654682 0.9312738876 -0.2229116624
147.8050000000 99.0244000000 1824.3900000000 -0.6403246029 -0.7663511727 0.0518679386
-204.4120000000 38.9253800000 1784.1420000000 -0.6927876595 -0.7157930639 -0.0876672608
-372.4675000000 -31.6883500000 1942.8600000000 0.7571623064 0.6514890462 -0.0476158012
233.4130000000 -22.9940000000 1791.6200000000 -0.0033121137 -0.9998467938 -0.0171877534
-175.2036666667 -32.0375333333 2030.7700000000 -0.7046217773 0.5831517969 -0.4042797702
-61.1921000000 -35.2318000000 1981.4600000000 0.9808916032 -0.1938388438 -0.0166782893
81.6909000000 -23.3980666667 1581.6766666667 0.9349433180 0.3157611604 -0.1617896220
-63.6133250000 -62.6166000000 1993.0125000000 0.9701049748 -0.2401690139 -0.0348594712
80.3421909091 -24.1318909091 1563.5190909091 -0.9374720603 -0.3460231660 0.0376045828
135.9825555556 18.4321000000 1641.4544444444 0.9741978786 -0.1973320496 -0.1095379184
-294.7770000000 -49.9363000000 1905.7300000000 0.8178145858 -0.5743501369 0.0360724751
76.4932000000 -27.6164000000 1639.4500000000 0.9311048942 0.3181117106 -0.1784618045
-58.5229500000 -28.5828333333 1791.6200000000 0.9953796102 -0.0949339129 0.0143869316
82.7808538462 -22.9306923077 1590.5207692308 0.9035990397 0.4118988643 -0.1176779547
-60.2994500000 -33.2775500000 1991.3550000000 0.9828354808 -0.1844806647 -0.0011410715
-397.5080000000 185.1805000000 1961.9700000000 0.4521416831 0.8913410614 -0.0328482967
-352.0000000000 -158.0000000000 2493.3300000000 0.7998090313 -0.5996764707 0.0263371222
-137.4428125000 -24.7614937500 1579.6737500000 0.7933069976 0.6078764376 0.0339152500
-137.1140000000 -13.7313466667 2232.8400000000 0.6878307152 0.7258130202 0.0091851511
-49.2307666667 36.5501000000 2092.3100000000 0.9760538215 -0.2146736328 -0.0351307394
158.5065000000 -163.2601666667 2031.9200000000 0.9723582355 -0.1952642926 -0.1280285826
-164.3978333333 -32.0935666667 2099.6500000000 0.0181380125 -0.6008793055 -0.7991339516
238.0310000000 -24.1231000000 1841.2300000000 0.0002872671 -0.9998258549 -0.0186595124
-177.2140000000 -32.1103600000 2063.4500000000 -0.5070845661 0.4942417672 -0.7061092822
-172.5240000000 -140.5750000000 1911.8200000000 0.9662614443 0.2475354142 0.0711690941
-210.2325000000 -35.7788000000 2140.9700000000 0.9530169202 -0.1576004163 -0.2586906619
134.6110000000 115.7692500000 1848.3400000000 0.9827104994 0.0956502863 -0.1585279065
-294.3180000000 -29.4564000000 1841.2300000000 0.5091598058 0.8557860470 0.0915780209
-391.0600000000 -6.6475650000 1714.6100000000 0.4298260647 -0.8998611980 0.0741577937
-379.0633333333 11.1713616667 1753.1300000000 0.9937366998 0.0726338269 0.0849217210
-334.9132000000 -29.8354200000 1872.3440000000 0.4101016472 -0.9107620388 0.0482612450
-335.0018259109 -74.4698186235 1581.5130769231 -0.3726635590 0.0700017714 -0.9253224432
170.4078000000 -52.2977000000 1936.5700000000 0.9893658440 0.0019999725 -0.1454346136
-366.2603928571 -30.9507642857 2042.3200000000 -0.1063370665 0.6563954231 -0.7468851831
-165.5190909091 6.7569300000 2121.9900000000 0.8682247582 -0.3631723090 -0.3380704708
-334.8130611814 -22.3459681435 1594.9070464135 -0.0579427125 0.3917155649 -0.9182600712
-159.5562500000 67.1341000000 2212.2100000000 0.8143712499 0.5802507538 0.0104177776
-340.6613250000 -24.1920000000 1595.7300000000 -0.4222135723 0.0513490306 -0.9050408700
-254.5629130435 177.1424782609 1480.5560869565 0.7290316670 -0.6833521149 0.0392774181
71.4290272727 -22.6741909091 1581.1700000000 0.9247200804 0.3673690812 -0.0996630882
-58.7662375000 -28.5708625000 1799.7050000000 0.9896591029 -0.1417001923 0.0222691623
-152.2190000000 -31.3741111111 2112.0066666667 -0.7872398519 -0.6114193580 -0.0801235557
-399.4700000000 185.4300000000 1981.4600000000 -0.5865914135 -0.8066498280 -0.0722950107
-370.7585000000 147.3100000000 2063.4500000000 -0.0111044903 -0.9923372553 -0.1230587748
-138.2111428571 -24.4212428571 1602.4514285714 0.7978472837 0.6015275842 0.0400534320
-136.5410000000 -13.8346000000 2249.6200000000 0.7154258899 0.6985628655 -0.0132559010
-398.6148750000 185.3247500000 1973.2950000000 -0.6007456142 -0.7979498362 -0.0487930936
-355.2260000000 -162.6335000000 2462.5500000000 -0.7922796898 0.6033818499 -0.0906820622
-138.2670000000 -25.2897666667 1612.2166666667 0.7974828227 0.6022321013 0.0365738099
-136.7577142857 -14.2964142857 2241.2000000000 0.7115570542 0.7025920146 -0.0071428079
-141.3330000000 -27.5556000000 1662.2200000000 -0.5955863341 -0.7391476556 -0.3145435771
-48.4968800000 37.4860800000 2111.5100000000 0.9738669978 -0.2264336447 -0.0176316512
156.8377500000 -160.4047500000 2013.1200000000 0.9706089642 -0.1906566562 -0.1468614246
-163.0660000000 -32.6132500000 2085.0200000000 -0.1544125677 -0.9869335194 -0.0460324590
-48.9078200000 39.7163200000 2121.9900000000 0.9720206800 -0.2316528261 -0.0388942889
-164.0278000000 -32.3356600000 2092.3100000000 -0.1814787563 -0.7360606706 -0.6521350705
-48.9256000000 24.4628000000 2472.7300000000 0.9837240852 -0.1709958984 -0.0552025998
-163.9305000000 -28.4393000000 1729.4800000000 0.9473818098 0.3154298623 0.0545133781
-252.8430000000 -33.1773000000 2001.3400000000 0.9942011232 0.0310706194 0.1029501975
-297.6445000000 -31.7929000000 1933.4450000000 0.5880351331 0.8073405415 0.0491521346
-295.9632500000 -30.2345250000 1872.9300000000 0.4268359348 0.9012699064 0.0743211990
-294.8955000000 -21.0879000000 2503.7700000000 0.9969253471 0.0748040306 0.0233282937
-395.1930000000 -4.3374640000 1763.1140000000 -0.5486160151 0.8232959357 -0.1456168614
130.0290000000 115.6340000000 1765.1900000000 -0.9961303505 0.0592319032 0.0649300126
-296.8776666667 -31.0548333333 1893.6700000000 0.6418894859 0.7629159781 -0.0770525682
133.6063333333 114.8926666667 1833.7100000000 0.8950963106 0.4289048201 -0.1218328771
-391.3130000000 -70.7070666667 2266.6700000000 -0.0000000000 -0.0000000000 -1.0000000000
-295.8255000000 -29.9065500000 1864.1700000000 0.5624830336 0.8232859064 0.0762440375
-295.3276000000 -18.9579900000 2514.2900000000 0.9973036591 0.0332475623 0.0654217946
137.5949090909 116.2808181818 1871.5981818182 -0.9637792620 0.2662329943 -0.0157964215
-292.6038333333 -29.0172166667 1818.8400000000 0.5118315088 0.8581535249 0.0400129253
-292.3638000000 -19.8347000000 2472.7300000000 0.9939029365 0.0114370170 0.1096637927
-335.0943333333 -29.5178000000 1881.7600000000 -0.4176920617 0.9053429539 -0.0767298992
-34.1258500000 -212.5875000000 2092.3100000000 -0.8108675540 -0.5695229579 -0.1346752027
-341.8410000000 -30.7302000000 1899.6800000000 -0.4465855227 0.8922280332 -0.0670112507
-366.0113941606 -29.4690598540 2049.3200000000 0.1455059010 0.3026606665 -0.9419259810
-328.4186000000 -22.2388133333 1622.5700000000 0.9741517604 0.1538095720 0.1654417218
-159.4120000000 65.2941000000 2200.0000000000 0.9961623726 0.0875145655 0.0013146475
145.8013333333 -162.4240000000 1942.8600000000 0.9482657589 -0.2739400235 -0.1604646815
-345.2760432802 -21.5227154897 1600.6645102506 -0.3587193728 0.1660179705 -0.9185632505
-40.9168250000 -181.5025000000 1892.1775000000 -0.7013354546 -0.5503441178 -0.4530451768
150.9900000000 -190.5800000000 2042.3200000000 0.8439823573 -0.5132017985 -0.1559413177
-371.9653548387 -22.8664080645 1612.9400000000 -0.5164233987 0.0235209969 -0.8560103013
-254.1389629630 176.5537037037 1470.2766666667 0.6642209187 -0.7322057943 0.1506162209
73.8566692308 -22.4447461538 1572.5107692308 -0.9667190126 -0.2558148788 0.0036191887
-150.0000000000 -33.6111000000 2077.7800000000 0.8359172211 0.5486892425 0.0135097937
-399.4650000000 184.0800000000 2001.3400000000 -0.4002349110 -0.8778444529 -0.2630610814
-357.4236000000 -163.6612000000 2535.5900000000 -0.7686153224 0.6329871630 -0.0925080415
-352.2010000000 -167.0440000000 1881.7600000000 -0.2131180628 -0.9656605561 -0.1485946896
-137.4457500000 -25.6392250000 1618.3950000000 0.8028924753 0.5958272447 0.0188033916
-137.5760000000 -13.0303000000 2266.6700000000 0.7193200059 0.6942458472 0.0245241261
206.3450000000 3.8620700000 2063.4500000000 0.5503292382 -0.8324573789 -0.0644394435
-181.7318333333 -30.7473000000 2129.5400000000 0.6646217610 -0.1577476788 -0.7303379934
-142.1230000000 -27.2626000000 1671.5100000000 0.6701938296 0.7320621051 -0.1221691661
-251.8520000000 10.5050525000 2014.8100000000 -0.9895911192 -0.0055360818 -0.1438011427
-152.0745000000 -28.7306500000 1852.6300000000 -0.4184032460 -0.2830363879 -0.8630348353
-155.1550000000 -25.0511000000 2051.6666666667 0.8149264971 0.5787533700 0.0306486710
-321.9280000000 118.0720000000 1802.4100000000 -0.3955377771 -0.8572949016 -0.3295380383
-47.8776600000 39.2180200000 2140.2040000000 0.9256330688 -0.2852619442 -0.2486544695
-163.3216666667 -31.1880000000 2070.5900000000 0.4625901356 0.8798443079 -0.1090154127
-305.5730000000 -31.9365400000 1990.6920000000 0.3774943387 0.9243219442 0.0559192962
-185.6500000000 -10.3406847619 2082.2619047619 0.3692021064 0.9289836684 -0.0260604766
115.1079411765 -301.8705000000 2152.5200000000 0.0000000000 -0.0000000000 -1.0000000000
-306.2250000000 -31.2583000000 1981.4600000000 0.4594542055 0.8877573634 0.0280837446
-184.7317857143 -10.3377078571 2012.3957142857 0.7893897563 0.5802412457 -0.2004592462
-307.3383333333 -30.4186333333 1972.7533333333 0.3619151674 0.9313905441 0.0391032733
-184.9098333333 -9.7297350000 2021.6200000000 0.7101735476 0.7037931597 0.0181306571
-304.1557500000 -30.9090750000 1942.8600000000 0.5958648529 0.8029560309 0.0143767022
-160.2540000000 21.3333000000 1899.6800000000 0.6361148521 0.7690913348 -0.0621000300
-336.6085000000 -29.6769250000 1889.1925000000 -0.4360266930 0.8932462948 -0.1095069855
90.4829000000 -25.1580750000 1650.7600000000 -0.9869860581 -0.1556392469 0.0404344639
-253.3440833333 175.7857500000 1460.7000000000 0.7052941580 -0.6273699290 -0.3301016856
75.6068142857 -21.5945428571 1643.3157142857 -0.9637860288 -0.2579464318 -0.0676766498
-170.8377500000 41.4523500000 1671.5150000000 -0.6161765298 -0.7857688570 -0.0537939357
-58.6994500000 -28.2782750000 1831.3725000000 0.9943387039 -0.1039355956 -0.0220892249
-170.8470000000 40.6780000000 1690.4000000000 0.6789406674 0.7048770302 -0.2053970359
-59.2264000000 -29.1801500000 1849.7700000000 0.9961206554 -0.0879468111 0.0029997047
-175.1790000000 37.6708400000 1873.5160000000 0.7945150443 0.5255575881 -0.3041957693
-58.6965400000 -29.4593200000 2032.6100000000 0.9946083629 -0.1033428538 0.0086289684
-58.8168320000 -30.6751920000 2143.5744000000 -0.9330785036 0.2580532486 -0.2505454591
89.4798000000 105.6650000000 1729.4800000000 0.8965173311 -0.4413616629 -0.0381648745
-227.2131333333 97.6686608889 1583.0700000000 0.8385261234 0.5422007370 -0.0537801181
-61.1765000000 -33.2180000000 2070.5900000000 -0.9794858093 0.1998192419 -0.0260733587
-399.4630000000 184.6980000000 2008.0500000000 -0.4651254372 -0.7736055608 -0.4303402885
-370.0850000000 149.0570000000 1695.1800000000 0.9879994703 0.0052415657 0.1543683022
-356.9316666667 -164.0166666667 2503.7700000000 0.7833007705 -0.6189670828 0.0576164330
-351.3480000000 -167.0220000000 1875.8600000000 0.1571683569 0.9875386472 0.0080949253
-136.8600000000 -26.4463000000 1648.4800000000 0.8123116002 0.5824414686 0.0301960241
-137.4050000000 -14.6565000000 2283.9700000000 0.6926502178 0.7210520560 0.0178775919
-371.1022222222 147.3694444444 1700.5377777778 0.9876188736 0.0091391039 0.1566059937
-355.4060000000 -161.7926666667 2514.2900000000 0.7503741615 -0.6609551470 0.0087699190
-166.9547619048 -110.4897142857 2129.5400000000 0.5465877133 0.8330888960 0.0848808755
-138.4615000000 -25.2747000000 1643.9600000000 0.8083976538 0.5875246839 0.0361659961
-136.3980000000 -16.5517000000 2292.7200000000 0.6932817852 0.7206627381 0.0023630817
206.8623333333 5.6715133333 2054.0133333333 -0.6212084560 0.7815303749 0.0575354443
-181.5236470588 -29.6085058824 2141.6458823529 0.7829515069 0.5122994292 -0.3528969151
-320.4790000000 122.6350000000 1791.6200000000 0.4624819374 0.8864285653 -0.0188376272
-43.5091101942 37.8850330097 2152.5200000000 -0.9400993239 0.3124488978 -0.1363412901
159.4520000000 -165.4790000000 2049.3200000000 0.9581362726 -0.2504044335 -0.1388254399
-160.2730000000 -32.7645000000 2042.3200000000 -0.3046186131 -0.8964490923 -0.3218486063
-251.0597500000 -29.3377750000 1981.4600000000 -0.9885237203 0.0093193178 -0.1507779981
-311.7116666667 -31.7117333333 2021.6200000000 0.3714453832 0.9274701074 0.0427495871
-143.7840000000 1.6216200000 2021.6200000000 -0.5585865811 -0.8269095105 -0.0648204671
-317.3162222222 -28.2633111111 1771.5788888889 -0.5009205409 0.8614316015 -0.0837508662
187.2056331361 -12.2479320710 1988.0400000000 0.2174765603 0.3657468547 -0.9049492715
-186.4488000000 59.7324200000 1750.7360000000 0.6946222724 0.7190257148 0.0224035749
-193.3751666667 -281.9741666667 1989.1450000000 0.6403687233 -0.7630200488 -0.0879107694
-356.4909000000 -30.6013200000 2011.4300000000 -0.4061708540 0.9104749904 -0.0778494011
-334.3145000000 -21.3022250000 1659.9200000000 0.8989683042 0.4087332308 0.1574583567
-233.7390000000 -83.4783000000 2601.7400000000 0.0305070892 -0.9967538503 -0.0745055659
-358.1070068027 -19.9575673469 1608.6000000000 -0.4533944419 0.0408218682 -0.8903746712
91.1004333333 -24.7165333333 1660.6866666667 -0.9993617166 -0.0090931843 -0.0345466839
-251.5697031250 179.0435156250 1450.5617187500 0.6172488841 -0.0642068820 -0.7841436675
75.3451333333 -22.7624333333 1632.0033333333 -0.9116102282 -0.4100369077 -0.0289227633
77.6322600000 -21.3638500000 1671.5160000000 -0.8760302952 -0.4816716832 -0.0237341858
-58.6018000000 -28.2067000000 1818.8400000000 0.9946658239 -0.1031498750 0.0000454944
-439.3511166667 168.3911166667 1994.6700000000 -0.2348751277 -0.0082772531 -0.9719903094
-170.8193333333 42.3923666667 1651.5200000000 0.6221793833 0.7828423756 -0.0071154759
-58.6981500000 -28.3204000000 1810.5900000000 -0.9925752487 0.1111058942 -0.0494960201
-59.3231000000 -29.0462000000 1841.2300000000 0.9907107629 -0.1310869044 -0.0361719200
-172.0440000000 41.0304600000 1712.6500000000 0.6699405891 0.7394974990 -0.0657499507
-58.5601800000 -28.1536000000 1873.5160000000 0.9957374408 -0.0922283451 0.0009387473
-171.6620000000 38.9504000000 1744.6100000000 0.6784086536 0.7340875114 0.0296179720
-59.1519333333 -29.4910666667 1901.6966666667 0.9914055113 -0.1288987400 0.0223657541
-173.0362500000 39.9399500000 1773.0400000000 0.9122409213 0.3612083389 -0.1932486412
-59.3206000000 -29.9831000000 1933.4450000000 0.9821479061 -0.1870903321 -0.0195626723
-212.8710000000 -97.2174333333 1951.3133333333 -0.4678580029 -0.8744816992 -0.1280259619
-158.1455000000 -30.4636000000 1981.4600000000 0.6698197324 0.6205449751 -0.4077566186
-46.9932857143 38.1227571429 2160.2900000000 -0.8822532820 0.3320167258 -0.3337574571
-163.4780000000 -29.8401000000 2054.0133333333 0.4907341649 0.8688046274 -0.0660189272
-320.9250000000 141.5811666667 1659.9200000000 0.9825794106 -0.0569913195 0.1768889239
-372.5005555556 75.8824555556 1811.5033333333 -0.4453652884 0.8726679119 -0.2002510309
-48.1250000000 37.5000000000 2337.5000000000 0.9591640449 -0.2819135384 0.0230019967
16.0611238095 -207.6535952381 1797.6440476190 -0.1557368447 -0.9564579479 -0.2468485955
-168.5000000000 -29.5000000000 1870.0000000000 0.6918453604 0.5485140682 -0.4695554432
-374.2667777778 49.4345888889 1711.8877777778 0.9797682649 -0.0924097193 0.1775234939
164.7680000000 -5.8278100000 1981.4600000000 0.8080535106 0.3767623016 -0.4528793350
-165.3444117647 -23.7082764706 1703.1317647059 0.7731737098 0.5837688565 -0.2478231965
-325.8752000000 119.7526000000 1831.0920000000 0.9540644856 0.2901828995 0.0745308130
-165.4909210526 -21.1960000000 1670.7800000000 0.9404947031 0.3332798243 -0.0662893066
-325.8480769231 118.7127692308 1692.6061538462 -0.8180314656 0.4840829631 -0.3106255079
-164.7146666667 -20.7857500000 1653.0400000000 -0.5099877398 -0.3790738588 -0.7721499302
-316.6255000000 -29.9804000000 2032.4950000000 0.3808095710 0.9242092327 0.0286594628
132.5202000000 115.7604000000 1822.1700000000 -0.9298616807 0.3666655919 -0.0302257912
-295.8383333333 -28.5713333333 1831.8400000000 0.3343499743 0.9415228289 0.0417714904
-290.7000000000 -22.3868000000 2462.5500000000 0.9921949674 0.0541242730 0.1123374810
-393.5450000000 -6.4553300000 1724.5000000000 0.6984233969 -0.7092057226 0.0960833061
136.6150000000 117.1690000000 1841.2300000000 0.9671196561 0.2098001396 -0.1437479469
-292.6067500000 -28.5412250000 1809.2200000000 0.4424948302 0.8929616743 0.0825698096
-292.7800000000 -19.2531000000 2482.9900000000 -0.9894379051 -0.0669892085 -0.1285499046
-24.3972000000 153.1910000000 2121.9900000000 0.7647915850 -0.6403832167 -0.0707330702
-292.4555000000 -28.2635000000 1791.6200000000 0.5250430315 0.8503939272 0.0340585329
-376.7815000000 8.0459750000 1719.5400000000 0.9871770776 0.0849036794 0.1351768573
-335.8630000000 -28.6741666667 1903.7133333333 0.4966536591 -0.8678992671 0.0092738912
-338.2933333333 -23.1588166667 1692.7900000000 0.8722809879 0.4818659205 0.0832533055
-288.2586666667 137.0706666667 1920.0066666667 0.7030182970 0.7091234157 0.0539375130
-328.8405000000 -25.3212000000 1632.7450000000 0.9944294639 0.0855772808 -0.0615351139
208.4280000000 -31.0368000000 2001.3400000000 0.4078708492 0.0020574450 -0.9130373143
96.4922000000 -23.1338750000 1713.3850000000 0.9249340498 0.3003965680 -0.2329354107
76.2299250000 -20.0677250000 1658.7700000000 0.8916435875 0.4193438476 -0.1706530115
-173.4660000000 41.8980500000 1722.0200000000 0.8755432493 0.4797247830 -0.0573424034
-59.8742000000 -29.1824000000 1881.7600000000 0.9948249943 -0.0842842293 -0.0567397514
-173.8920000000 39.7605000000 1791.6200000000 -0.7363558837 -0.6644840659 -0.1274399417
-58.9345000000 -29.5984000000 1953.4366666667 0.9957041294 -0.0895496987 0.0235401393
-148.8055000000 -31.6724000000 2042.3200000000 0.7452020472 0.6664636881 0.0223620480
-4.7552450000 125.0350000000 2092.3100000000 0.9986046464 -0.0452277204 -0.0272619413
-147.4970000000 -29.5519000000 1961.9700000000 0.7391023518 0.6721862035 0.0435134611
-149.1893333333 -30.2703000000 2021.6200000000 0.8259663581 0.5596281084 0.0677934770
215.8610000000 -1.8941430000 1934.4866666667 0.9227233900 0.3632949985 -0.1288343495
-156.1146666667 -19.4260333333 1981.4600000000 -0.8040024613 -0.5898695059 -0.0750600308
-371.6720000000 146.3610000000 1961.9700000000 0.9979732290 0.0593724094 -0.0228987155
-355.7934545455 -160.1440909091 1972.5563636364 0.9459857384 -0.3202463386 0.0505298463
214.8136005587 -111.7991117318 2001.3400000000 0.3551219936 -0.3644055213 -0.8608699006
-364.9955454545 -213.9372727273 1961.9700000000 -0.4151126802 -0.8876205045 -0.1995276992
-139.5450000000 -26.3636000000 1700.0000000000 0.8040917318 0.5912914209 0.0617328306
-137.8405000000 -16.3458500000 2351.2900000000 0.7679357982 0.6388964290 0.0456723427
-143.3657894737 -21.4035421053 1621.4573684211 0.7836207627 0.6203077671 0.0340113853
203.9590000000 4.3686000000 2042.3200000000 0.6035549218 -0.7919081698 -0.0927518569
-181.8351666667 -29.0844333333 2112.0066666667 0.9864598608 -0.1379256162 -0.0887325616
207.2080000000 3.9576000000 2114.4900000000 0.4755790780 -0.8775376317 -0.0612555757
-181.7496666667 -28.5579000000 2121.9900000000 -0.1287399548 -0.0527760860 -0.9902730476
-322.7758000000 119.2962000000 1821.0600000000 0.9382941228 0.3261808320 0.1149356513
153.8460000000 -164.8160000000 2001.3400000000 0.9715305135 -0.1969176654 -0.1317265893
-165.1580000000 -20.6000259259 1658.8125925926 -0.5918360940 -0.5313768475 -0.6061094653
-371.0803333333 47.1157666667 1694.3833333333 0.9874125185 -0.0776609796 0.1377871207
-165.9850000000 -23.7112875000 1722.0200000000 -0.8642269758 -0.4648484346 -0.1924257447
-376.0031111111 48.7642000000 1722.2955555556 0.9685498369 -0.1314220180 0.2112805402
168.1850000000 -4.7524750000 1974.9200000000 0.8871316561 -0.0422522567 -0.4595782540
-167.1978000000 -23.6561600000 1714.6100000000 0.8271852872 0.5608233741 0.0352369647
-48.6706600000 57.3716000000 1902.1000000000 0.9740138505 -0.2137380172 -0.0749204853
-357.5463333333 -128.2960000000 2080.1933333333 0.9478923563 -0.3181143753 -0.0174162293
256.6870000000 -24.0491000000 1835.5800000000 0.0018761824 -0.9997206737 -0.0235595960
-192.3880000000 -30.1038125000 2070.5900000000 0.9369120787 0.3415816025 -0.0742816643
-300.6340000000 -26.7435000000 1724.5000000000 -0.2781687513 0.5984899598 -0.7512868386
-302.7185234375 -24.2804750000 1730.8107812500 -0.3653954244 0.4003006847 -0.8403841655
-329.8630000000 -25.4247000000 1639.4500000000 0.9845851377 0.1747355725 0.0077192125
131.8790000000 -27.4424400000 1813.3300000000 0.1256324891 0.1861620738 -0.9744537752
-174.8343333333 -3.0022066667 1981.4600000000 0.9696269343 0.1932845921 -0.1498822029
-198.0261825397 167.6133095238 1692.7520634921 -0.4810540380 -0.7134431196 -0.5094957581
-414.4520000000 -106.8390000000 1930.3200000000 0.9590596031 0.2069973446 0.1932790133
101.6671000000 -22.5145100000 1761.5570000000 0.9292756876 -0.1953331751 -0.3135149873
97.2205800000 -21.5473000000 1722.0200000000 0.7277935615 0.6266763516 -0.2785557074
-62.2860000000 -34.1232000000 1831.8400000000 0.9780889189 -0.2081799333 0.0017838172
84.7815400000 -23.3416200000 1752.7880000000 -0.7035102890 -0.3213757299 -0.6338697923
152.4530000000 232.4530000000 1881.7600000000 -0.8829875178 0.4693817282 0.0037197589
30.6903666667 -3.3136098333 1770.4100000000 -0.1875739685 0.2377234635 -0.9530496111
26.1068387218 -20.1852954887 1760.3121804511 0.2636051103 0.5092768283 -0.8192371195
23.3722530726 -24.2236726257 1754.6967039106 0.3415253931 0.4590003625 -0.8201701488
-5.1358553719 -21.9907297052 1749.9542857143 -0.0081667910 0.2540072905 -0.9671678241
-24.9776172336 -22.1445979592 1754.5724489796 -0.3030627893 0.3064494719 -0.9023534047
-175.6798888889 40.4288555556 1861.6011111111 0.4137055729 0.8520701761 -0.3206619932
-58.5946000000 -29.5135000000 2021.6200000000 0.9961039937 -0.0842546841 -0.0260380865
-175.6140000000 38.2058000000 1890.0880000000 -0.7068158085 -0.6828887999 -0.1845922530
-58.5818333333 -29.8401000000 2054.0133333333 0.9944517546 -0.1050287647 0.0058878126
-149.5170000000 -31.4483000000 2063.4500000000 0.7503108660 0.6571585588 -0.0719460429
-150.9910000000 -29.3693666667 2021.6200000000 -0.7593203895 -0.6434439461 -0.0970177013
-204.9315351351 184.6039513514 1668.5376756757 0.2931980488 -0.8065818057 -0.5132842243
-395.2798888889 185.4592222222 1891.6800000000 -0.6138165495 -0.7748061715 -0.1513427902
-376.7940000000 153.2820000000 2283.9700000000 0.9206179432 -0.3649242538 0.1388988537
-356.1986666667 -162.7236666667 2546.3800000000 -0.7701205034 0.6337731464 -0.0724293396
-354.8456666667 -170.7346666667 1911.8200000000 0.1824030688 0.9800292749 0.0791943229
-165.4200744681 -113.2762765957 2141.7034042553 -0.6404059358 -0.7543797766 -0.1441921980
-139.6610000000 -25.7627000000 1690.4000000000 0.7812185673 0.6239004530 0.0211133806
-137.6745000000 -14.5736500000 2319.3800000000 0.7136013579 0.7005285186 0.0057355661
-5.7337900000 136.9556000000 2042.3200000000 0.9211222520 0.3037479021 -0.2434563797
-151.4370000000 -27.8899000000 1829.9700000000 -0.7699757437 -0.5012562092 -0.3948158644
-371.9926666667 47.3631666667 1703.2266666667 0.9803480453 -0.0910231653 0.1750214086
-166.3670000000 -23.5400500000 1731.9850000000 0.5558543064 0.3802812721 -0.7391969590
-175.5970000000 -28.6792000000 1881.7600000000 0.8925122163 0.4470987221 0.0593689853
-182.6125714286 -28.9549857143 1953.7400000000 0.8533870808 0.5201479604 0.0343014529
-183.9997500000 -29.1147250000 1961.9700000000 0.8443370927 0.5332841091 0.0519897383
-315.9672222222 -29.3462000000 2011.8055555556 0.3787927106 0.9238833388 0.0543659691
-8.4443600000 -217.4536666667 1953.4366666667 -0.4028392005 -0.9087976502 -0.1086619046
-303.8995000000 -28.6792000000 1881.7600000000 0.4017955745 0.9146090041 0.0452845005
-182.1820000000 -3.0430433333 1797.0000000000 0.9963864127 0.0468671851 0.0708349037
-304.1362000000 -21.9092740000 1741.9684000000 -0.8229573682 0.5132969663 -0.2434489566
-311.4411666667 -26.0644333333 1761.7300000000 -0.4879299316 0.8693765245 -0.0781590721
-135.1592059925 98.5042895131 2160.2900000000 -0.1026772823 0.1030006065 -0.9893676014
131.9490434783 -141.0095869565 1809.1604347826 0.9465681087 -0.1573676649 -0.2815035232
-73.8867666667 -292.7245000000 2110.7650000000 0.8914479019 -0.4511224796 -0.0425340643
-274.9176000000 -58.8434000000 2033.9900000000 0.2673449270 0.9614906187 0.0637375884
274.3605000000 -26.7541000000 1961.9700000000 0.0085503169 -0.9996193024 -0.0262324677
104.3187777778 -22.3597888889 1783.3144444444 0.9796024510 0.1285258043 -0.1544673286
-215.0916125000 209.0454250000 1442.6280000000 0.0009094335 -0.9999774774 -0.0066496403
98.2513000000 -21.9574200000 1732.4860000000 0.6855585554 0.7194638549 -0.1112709691
-215.0954047619 208.7720000000 1632.1092857143 0.0151893281 -0.9741017538 -0.2255993298
92.4471166667 -21.2204500000 1682.4766666667 0.9744596504 0.1333398364 -0.1806900045
-442.8093636364 97.9263684211 2001.3400000000 -0.5250220416 0.0894841556 -0.8463713380
-60.8882432432 -35.1477351351 1773.8218918919 -0.8675986724 0.2539176250 -0.4275492759
80.4532500000 -24.7025500000 1695.1800000000 0.9585674083 0.1592324563 -0.2362065803
-53.1283946429 -21.5183082143 1772.6267142857 -0.8387380965 -0.0772181889 -0.5390322410
-56.8826111111 -22.7270791667 1782.2061111111 -0.9687737556 -0.0444321383 -0.2439327685
-57.8363200000 -21.8762466667 1791.6200000000 -0.9936706461 -0.0912101659 -0.0655694490
-172.8600000000 42.1063000000 1702.4200000000 0.5947239486 0.7913968198 -0.1414019048
-58.1366000000 -27.8261000000 1858.3900000000 0.9942362393 -0.1071599425 -0.0033237264
-174.6090000000 42.6667000000 1734.4900000000 -0.5776628167 -0.5788832305 -0.5754996747
-58.2965000000 -27.7602500000 1887.7000000000 0.9952861817 -0.0955728554 -0.0164695433
-173.3580000000 40.5488000000 1763.4600000000 -0.8296758419 -0.4495840889 -0.3309261917
-58.2051000000 -27.9487000000 1917.9500000000 0.9919097079 -0.1260206246 -0.0152948880
-215.4790000000 -72.3372000000 2292.7200000000 0.0014274181 -0.9939857821 -0.1094998968
-150.1120000000 -17.5281000000 1680.9000000000 0.6755648885 0.6457348989 -0.3558630660
-395.5154545455 185.7505454545 1901.8800000000 -0.4965725199 -0.8558568485 -0.1446540265
-376.6240000000 157.2695000000 2270.9800000000 -0.9702979684 0.0603269016 -0.2342701806
-353.6670000000 -169.7418333333 1900.6883333333 -0.1363299733 -0.9834452289 -0.1193717726
-139.9440000000 -25.2394000000 1685.6300000000 0.7864330049 0.6176689308 -0.0028671741
-139.3516666667 -13.2814333333 2328.4000000000 0.7296800843 0.6837437927 0.0078358412
-398.7596666667 183.9473333333 1990.2500000000 -0.5159802230 -0.8529126642 -0.0794002311
-379.9320000000 146.4406000000 2028.4700000000 0.6019178672 0.0084929901 -0.7985128366
-354.2617500000 -161.0125000000 2524.8900000000 0.7914430252 -0.6106021584 0.0279811005
-138.9360000000 -24.0104000000 1632.7450000000 0.7956240944 0.6046006490 0.0379520177
-137.4794000000 -13.8868000000 2258.1100000000 0.6983712449 0.7156873857 0.0083168678
-323.2000000000 119.1380000000 1841.2300000000 -0.7831679389 -0.2085156258 -0.5858064640
-48.2725000000 35.0365000000 2183.9400000000 -0.9715418649 0.2308532421 -0.0530394691
-162.3523333333 -29.5033666667 2030.7700000000 -0.7854746921 -0.6046219254 -0.1321432383
-48.2562500000 37.8647750000 2129.5400000000 0.9690249567 -0.2402049821 -0.0573776943
-47.2558000000 27.5349000000 2783.2600000000 -0.0000000000 -0.0000000000 -1.0000000000
-163.8620000000 -30.8966000000 2063.4500000000 -0.0564906944 0.2750604414 -0.9597658855
-378.9470000000 50.5263000000 1749.7100000000 0.9857104866 -0.0386925324 0.1639442729
-166.1165000000 -23.7758500000 1743.3400000000 -0.5950250171 -0.7848937105 -0.1728788369
-181.2912000000 -28.2177400000 1932.8200000000 -0.9231391495 -0.3444409096 -0.1708056512
-240.5030000000 -28.1761000000 1881.7600000000 0.9987015386 -0.0212292302 0.0463093578
-316.4506666667 -29.8521333333 2042.3200000000 0.3783476977 0.9250315398 0.0342004381
-314.6450000000 -28.6272000000 1970.5866666667 0.4003646563 0.9156919302 0.0348773706
-5.6187300000 -223.6790000000 2001.3400000000 0.3938960913 0.9133830126 0.1028462036
-304.2346666667 -27.3615333333 1871.9533333333 0.4833382801 0.8738772423 0.0521792335
-343.0000000000 238.5000000000 1870.0000000000 0.9762389513 -0.1132736852 0.1847338144
-185.0696666667 -2.7145693333 1791.6200000000 0.9966723957 0.0559704503 -0.0592574415
-29.4594500000 140.5405000000 2021.6200000000 -0.8022568507 0.5942071107 -0.0574617708
-294.5626153846 -24.9350846154 1741.8746153846 0.4663943899 0.8706526012 -0.1563340050
-208.4840500000 -4.8683295000 2129.5400000000 0.9264402814 -0.1738910154 -0.3338717115
-311.3200000000 -26.2757000000 1754.8400000000 0.5026717467 -0.8630762881 0.0491979259
-312.2605000000 -25.4289500000 1772.1633333333 0.4585596971 -0.8864947640 0.0620486719
-274.3173000000 -59.8068800000 2063.4500000000 0.0728903942 0.9970230501 0.0251401655
-74.1053000000 -296.1405000000 2099.6500000000 0.8997286749 -0.4343370942 -0.0428905598
275.1483333333 -26.7156888889 1972.0311111111 0.0376244115 0.9992877694 -0.0028909512
-329.7810000000 -28.0878000000 1875.8600000000 0.5570100708 -0.8290623938 0.0489420892
-337.0795000000 -28.7641000000 1921.0350000000 0.5322674533 -0.8447028247 0.0562893962
-339.9350000000 -28.9968000000 1936.5700000000 -0.4118633933 0.9078323528 -0.0787969825
-165.4340000000 8.3883253333 2109.5233333333 0.8958326835 -0.4439532768 -0.0197304630
-330.8710000000 -22.5687125000 1642.8325000000 0.8938031989 0.4317771965 0.1211787700
180.3390000000 0.6779660000 2535.5900000000 0.4972248918 0.8572206330 -0.1339410069
-272.8145000000 -35.4491000000 1791.6200000000 -0.7919498179 -0.3941675004 -0.4663126285
-394.5240000000 -34.2857000000 1780.9500000000 -0.1235978156 -0.9894714791 -0.0752978886
134.6134723926 -21.8928911043 1821.8363190184 0.6985331875 0.0818583118 -0.7108801606
-170.9390000000 -11.8620500000 1971.6700000000 0.3009674008 0.9336220989 -0.1943409378
-274.1760000000 -34.5592000000 1785.2060000000 -0.6483986044 -0.7458655423 -0.1525248920
132.1211578947 -25.4545500000 1813.3300000000 0.2451892853 -0.1383870273 -0.9595474168
-176.3210000000 -8.5618700000 2001.3400000000 0.4947066613 -0.6034022150 -0.6254367164
49.6187500000 47.7270250000 1572.6700000000 0.9855111486 -0.1633232055 -0.0457526667
124.9655148741 -21.8255775744 1821.1514416476 0.1862957880 0.2702396966 -0.9445974729
114.9934987654 -21.8855548148 1819.0592592593 0.2567347807 0.3528137312 -0.8997831536
-198.4414857143 164.0648285714 1700.0000000000 -0.3979954480 -0.7505830930 -0.5274700407
107.9288928571 -22.4510214286 1809.8071428571 0.8974624736 0.1902483445 -0.3979531076
-411.2856666667 -104.9273333333 1889.6900000000 -0.9073685994 -0.2625050974 -0.3282884382
106.7221578947 -22.9731157895 1799.8473684211 0.9715134320 0.1830573220 -0.1505047120
-197.1330133333 170.6382133333 1684.8101333333 -0.6057453470 -0.6915797323 -0.3934336646
101.0820000000 -22.8365250000 1752.2750000000 -0.9578796369 -0.2783568794 -0.0705977964
-193.0176153846 168.3005384615 1660.0969230769 -0.9888556706 -0.0887468431 -0.1195343491
-415.4210000000 -105.1820000000 1922.0633333333 0.9794946448 0.1836570523 0.0828270962
103.0414285714 -21.7531714286 1774.1671428571 0.9637905104 0.1279090015 -0.2339810664
100.8160000000 -24.6982000000 1742.9166666667 0.9236207548 0.3731889925 -0.0874910118
91.5380000000 -22.5389000000 1672.4460000000 -0.9932183343 0.0776008335 -0.0865762731
-61.9304571429 -33.8561142857 1812.5471428571 0.9782664159 -0.2073258001 0.0032912339
82.3135000000 -21.8634500000 1730.7325000000 0.8151506929 0.5609919636 -0.1442822395
-58.0788055556 -20.9840333333 1799.7050000000 -0.9965741401 -0.0512408039 -0.0649181275
-173.3542500000 36.7236250000 1849.7700000000 0.4606001670 0.8875706024 -0.0081186189
-59.0604000000 -29.5302000000 2008.0500000000 0.9991112310 -0.0421014703 -0.0020528653
-205.0480852941 188.8321823529 1659.8252941176 0.0092728515 -0.8754653788 -0.4831918715
-394.9690000000 184.6540000000 1881.7600000000 0.7010840259 0.7092572528 0.0737247450
-358.7980000000 -161.3730000000 2568.2400000000 0.7598597840 -0.6484210108 0.0465113048
-353.7518000000 -170.5852000000 1921.6520000000 0.0365583501 0.9988570930 -0.0307895258
-164.0992448980 -115.3663061224 2152.5200000000 0.7890790291 0.5483813850 -0.2768251116
-140.0000000000 -24.4444000000 1662.2200000000 -0.7963147063 -0.5966341822 -0.0995517007
-137.7605000000 -14.9807000000 2310.4200000000 0.6663532846 0.7456258365 0.0039258201
-328.8890000000 140.1900000000 1899.6800000000 -0.2489025261 -0.9575954262 -0.1451155820
-167.7110000000 -26.5060000000 1802.4100000000 -0.7243137301 0.0872509778 -0.6839275454
-327.4574000000 117.3760000000 1721.5240000000 0.7222175047 -0.6914669492 0.0165931933
151.5230000000 -164.2380000000 1981.4600000000 0.9540973495 -0.2831770375 -0.0975141683
-165.4377647059 -22.0491235294 1682.8476470588 -0.8158482107 -0.4106475244 -0.4071367188
-327.5950000000 133.1650000000 1893.6700000000 0.9925487671 0.0712972251 0.0988111865
-168.2800000000 -25.3130000000 1753.1300000000 0.7752205193 0.6315404596 0.0137765845
-57.9654000000 -253.8962000000 2070.5900000000 0.9634933659 -0.2647535787 -0.0398255759
-173.6153333333 -22.0745333333 1807.8500000000 0.9806723684 0.1921229568 0.0370199308
-182.5110000000 -28.2251000000 1942.8600000000 0.8706380525 0.4894810352 0.0489662913
-310.8245000000 -28.1750000000 1933.4450000000 0.4762019640 0.8763096793 0.0728905722
136.9124444444 107.6253333333 1861.6011111111 -0.7717596105 0.6327804218 -0.0630558601
-299.6940000000 -26.9113000000 1829.9700000000 0.3796434016 0.9225404072 0.0692104381
-305.4313500000 -21.9764700000 1761.8165000000 0.2353728144 -0.9712609528 -0.0353807834
-304.7333181818 -21.2014909091 1753.2077272727 0.6469956754 -0.7524853905 -0.1231354262
-277.8990000000 -45.9170750000 1935.0075000000 0.4586114727 0.8883848641 0.0211624743
-29.5882750000 -18.1764750000 1760.0000000000 -0.3217512362 0.2903297543 -0.9012129470
105.0360000000 -261.8705294118 2152.5200000000 0.0530619682 -0.1317840674 -0.9898572559
-313.0016666667 -24.4119833333 1784.4966666667 0.4683482395 -0.8826537232 -0.0396526358
-276.8673333333 -59.0961833333 2052.8400000000 0.4171301118 0.9068863254 0.0596629085
274.0260000000 -25.9740000000 1942.8600000000 0.0089387621 -0.9993565397 -0.0347362208
-313.8321250000 -24.3712500000 1791.6200000000 -0.3695594291 0.9138455174 -0.1682622914
-275.2111666667 -59.4243900000 2081.6413333333 0.2215253109 0.9578535500 -0.1828745839
277.0030000000 -26.0586000000 1949.1900000000 0.0085747182 -0.9992917245 -0.0366404642
-325.4320000000 -27.1605000000 1846.9100000000 0.4726819734 -0.8801600017 0.0434755510
-375.1659000000 8.1546990000 1713.6300000000 -0.9556607038 0.0163090189 -0.2940180862
-334.5690000000 -27.9446000000 1911.8200000000 0.6408679972 -0.7666964575 0.0382720824
100.0570000000 123.0770000000 1704.8400000000 0.6789346584 0.7171734964 -0.1571938475
-185.0268888889 58.3884222222 1742.3522222222 -0.6268202610 -0.7552865279 -0.1914121762
97.5868436620 -111.9876525822 1760.0487323944 0.3911762807 -0.0149894671 -0.9201936934
-195.9345000000 -281.4425000000 1961.9700000000 0.6446679815 -0.7614603040 -0.0676860326
-351.8390000000 -29.4314000000 2001.3400000000 -0.4727679174 0.8685893864 -0.1484687651
-35.0515466899 168.1418170732 1563.4980139373 0.5168493175 0.0721112443 -0.8530338513
69.7674000000 22.7907000000 1739.5300000000 0.9626464132 0.2646794819 -0.0570671101
-269.3250000000 -52.9904000000 1924.1200000000 0.5162575659 0.8545455552 0.0568332626
-380.8000000000 -28.2666500000 1994.6700000000 0.7728516927 0.6279204949 0.0917393763
157.1315000000 8.6055750000 2384.0600000000 -0.6324478176 -0.7745965873 0.0031440408
173.3695000000 -18.1132000000 1612.9400000000 -0.8018855072 -0.5933070902 0.0704721940
-181.5080000000 52.7213000000 1961.9700000000 0.7170802269 0.3756289667 -0.5871105752
93.1631166667 -92.8715000000 1640.9533333333 0.8465558201 0.4935462709 -0.1993873664
-354.0475000000 -23.5746500000 1799.7050000000 0.7671586933 0.6222621822 0.1557476030
-336.4510000000 -24.7887000000 1685.6300000000 0.9266709106 0.3508294806 0.1349062599
56.2787000000 77.4165666667 1632.7450000000 0.6232461600 0.7725345659 -0.1214683849
152.0932500000 -23.0332250000 1862.7250000000 0.9629930626 0.2402338180 -0.1221968661
-177.2310000000 41.1077000000 1841.2300000000 -0.4632952449 -0.7982468614 -0.3849148792
-58.0602000000 -28.8963000000 2001.3400000000 -0.9971068262 0.0608751236 -0.0455213847
-175.0106666667 40.3354333333 1881.7600000000 0.6080228775 0.7931058665 0.0359341761
-58.7031000000 -29.4881000000 2042.3200000000 0.9951601991 -0.0970141206 0.0156345287
-143.3201111111 -19.7669000000 1611.0111111111 0.7897409969 0.6123734297 0.0361654581
-181.0072500000 -28.4892166667 2152.5200000000 -0.1691755435 -0.1541340890 -0.9734589453
-156.6770000000 -27.6038000000 1911.8200000000 -0.7314053223 -0.2763317207 -0.6234477000
-175.5552500000 -25.1326250000 1861.2800000000 0.8567809533 0.5138997645 -0.0428185733
-181.3505000000 -27.5241500000 1924.1200000000 -0.8759432819 -0.4720176564 -0.0996127448
-306.3928333333 -24.9892333333 1850.7233333333 0.3580185421 0.9332070426 -0.0307788751
-22.5974000000 142.8570000000 1942.8600000000 -0.2775147895 0.9534885551 -0.1176652746
133.7676666667 109.0103333333 1833.7100000000 -0.7220947972 -0.6910155036 0.0328127660
-300.0000000000 -26.3415000000 1824.3900000000 0.4555893937 0.8871998643 0.0729020234
-291.6392500000 -13.4426250000 2452.4600000000 -0.9901394487 -0.0656836186 -0.1237317034
-23.1306000000 142.6825000000 1933.4450000000 -0.0424727841 0.9760606636 -0.2133111428
133.4150000000 108.0615000000 1841.2300000000 -0.9483463470 0.3118860792 -0.0580196490
-298.4890000000 -26.1027000000 1807.8500000000 0.4988734945 0.8665138099 0.0167049004
-290.6995000000 -12.5103000000 2462.5500000000 0.9921949674 0.0541242730 0.1123374810
-24.0839215859 127.6962511013 2152.5200000000 0.4982025594 -0.0135740389 -0.8669544136
-392.6417500000 -143.5450000000 2001.3400000000 0.9873981363 0.1034705867 0.1197445535
-297.5733333333 -25.2892333333 1784.4966666667 0.4101972646 0.9088357724 0.0758666131
-288.9520000000 178.5840000000 1695.1800000000 0.2027471733 0.9763527581 -0.0750258320
-110.6885000000 118.8195000000 1961.9700000000 0.9775498685 0.2103541754 0.0121398327
-322.2880000000 -24.9948500000 1851.2000000000 -0.4497986585 0.8767988170 -0.1700147092
-287.9335000000 176.4270000000 1683.2650000000 0.1375835888 0.9806020912 -0.1396076461
45.3909000000 207.3895000000 1991.3550000000 -0.0000000000 -0.0000000000 -1.0000000000
125.6499540984 135.9590032787 1565.5244918033 -0.3636584930 0.5945407804 -0.7171288315
-110.5260000000 121.5790000000 1968.4200000000 0.9775940048 0.2102894074 0.0093982443
-323.6354000000 -24.0952000000 1861.8580000000 0.5564876932 -0.8279193359 0.0697926967
-185.1795000000 47.9151666667 1889.6900000000 -0.3657980762 -0.9234502753 -0.1158937292
90.2400000000 -92.1600000000 1595.7300000000 0.8144305372 0.5625303359 -0.1423464833
-360.0000000000 -26.6667000000 1846.9100000000 0.8227460336 0.5577666466 0.1094775423
50.5435363636 76.3763636364 1561.6654545455 0.7488310345 0.6583496829 -0.0763398763
154.8481250000 -19.9744375000 1891.4312500000 0.9538305113 0.2765173006 -0.1172413674
-59.3375333333 -255.6356666667 2051.6666666667 0.9581675232 -0.2786805374 -0.0652085551
-173.6525000000 -24.4311500000 1791.6200000000 -0.8760538202 -0.4691129390 -0.1116367078
-176.8025000000 -23.5737000000 1875.8600000000 0.9348954907 0.3513148486 -0.0504806753
-310.9970000000 -27.2669000000 1924.1200000000 0.3886904081 0.9204820900 0.0404040681
-306.5000000000 -26.2500000000 1870.0000000000 0.4609036453 0.8852081016 0.0630432119
-306.0374000000 -24.4951400000 1832.2140000000 -0.4262737448 -0.8985914518 -0.1040389214
-305.7230000000 -24.8615500000 1841.2300000000 0.3650885592 0.9296122913 0.0503123424
-307.6612000000 -25.0753600000 1860.7020000000 0.4204507349 0.9061365198 0.0462362086
-302.9630000000 -24.9887666667 1820.6900000000 -0.4384046698 -0.8794764034 -0.1852635995
122.6262000000 141.8300000000 1610.3360000000 -0.7458315672 0.6649147167 -0.0402950731
-110.2700000000 116.2160000000 2021.6200000000 0.9738252943 0.2271508802 -0.0081715191
123.8520000000 110.2220000000 2216.3000000000 -0.0000000000 -0.0000000000 -1.0000000000
-324.0580000000 -23.0426400000 1873.5160000000 0.5762109762 -0.8132881979 -0.0808901605
-188.6355588235 44.3833264706 1950.8761764706 0.8538422056 -0.3232188519 -0.4080233593
93.4748000000 -91.3025666667 1652.2800000000 0.8771408523 0.4734691901 -0.0803171914
-353.1338333333 -22.1956333333 1791.6200000000 0.8353190214 0.5405792191 0.1000811688
94.3437000000 -90.7198166667 1659.1533333333 0.6628643008 0.7121873788 -0.2310845219
-352.3097500000 -21.8191250000 1783.6100000000 -0.8180108072 -0.5495786917 -0.1697691989
292.4320000000 -28.1081000000 2021.6200000000 0.0471817710 -0.8737598114 -0.4840637071
255.8086666667 -27.7026000000 1992.4600000000 0.0193439420 -0.9985372830 -0.0504886749
252.8428333333 -27.8261000000 2001.3400000000 0.0369977506 -0.9457473380 -0.3227896204
-59.6255000000 1.1985000000 2241.2000000000 0.7478052610 -0.6634567326 -0.0247478377
244.6133333333 -27.7026000000 1992.4600000000 -0.0816119806 -0.9926414741 -0.0894560701
-56.7579200000 -253.3054000000 2099.6500000000 0.9706151642 -0.2309225857 -0.0676828082
-172.0615000000 -22.1538500000 1841.2300000000 0.3546373878 0.0032097983 -0.9349984066
-205.3750000000 45.6125833333 1773.9166666667 -0.8586580572 -0.5050721636 -0.0872264321
161.9881538462 -21.9783384615 1932.2430769231 -0.9850140273 -0.1670082534 0.0430767845
-205.7609000000 46.7368700000 1783.6100000000 -0.6266790820 -0.6885037772 -0.3650148998
160.5145000000 -22.8588500000 1921.0350000000 0.9668937776 0.2047872578 -0.1522452033
52.8382000000 78.5146000000 1587.2700000000 0.6136557589 0.7868162793 -0.0659299028
-371.1240000000 -167.5740000000 1770.4100000000 -0.8409239989 -0.4409784570 -0.3136635594
157.1390000000 -21.1754250000 1902.7050000000 0.9563757028 0.2214819991 -0.1905025964
79.0041000000 -20.6447400000 1693.2680000000 0.9473187535 -0.0231879395 -0.3194518723
-174.0583333333 49.1038055556 1672.0355555556 0.6623987481 0.7475059328 -0.0496263936
-57.9191833333 -24.0640500000 1935.5283333333 0.9972849282 -0.0668865180 -0.0308052871
-235.8753000000 162.2301200000 1695.1800000000 0.2485227117 -0.7890203244 -0.5618570899
-147.9250000000 -4.7510247059 2152.5200000000 -0.0126829041 -0.2756452338 -0.9611757639
-59.2805666667 -28.4892166667 2152.5200000000 -0.5770800070 0.1195222821 -0.8078942317
-325.2486666667 123.6196666667 2030.7700000000 0.6525338036 0.7576991813 0.0095700515
-375.3858888889 79.1749222222 1849.4522222222 0.6849013071 -0.7261137769 0.0605721267
-93.7748000000 -290.8610000000 1981.4600000000 0.1194033612 0.9876791342 0.1011571308
-161.8600000000 -27.6412000000 1988.0400000000 0.9948330528 0.0445250226 -0.0912399004
-59.5973000000 -248.3225000000 2008.0500000000 0.9672016028 -0.2470706360 -0.0589674516
-171.5020000000 -26.5815000000 1911.8200000000 0.1490743217 -0.5359725924 -0.8309694500
-174.3695000000 -23.4071500000 1902.7050000000 0.4731199696 0.8147661614 -0.3351322076
-57.9310600000 -250.2620000000 2063.4500000000 0.9671275140 -0.2497374044 -0.0479124264
-175.0070000000 -22.6255333333 1800.6066666667 0.7001650598 0.7134340311 -0.0279423023
-176.5430000000 -25.4321000000 1846.9100000000 -0.8811477307 -0.4479621565 -0.1513558160
-178.6160000000 -26.1635000000 1881.7600000000 0.8887659999 0.4582195802 0.0113935829
-245.2980000000 -27.5497000000 1981.4600000000 -0.9874646110 0.0778204222 -0.1373230642
-239.3430000000 -22.9025300000 1890.6850000000 0.9921127581 -0.0916204885 0.0855450833
-312.4602857143 -27.8571428571 2077.7800000000 0.3777356310 0.1634250461 -0.9113770062
