-145.9018000000 -179.1328000000 2092.3100000000 0.9396845302 -0.3403783415 0.0336981946
-12.0635000000 -324.4440000000 2374.6000000000 0.7984964948 -0.5950719905 -0.0910641194
-139.3067500000 220.0055000000 1797.0000000000 -0.2753154927 -0.0246616223 -0.9610375559
45.1541600000 -20.9960500000 2365.2200000000 -0.1636016802 0.9861289729 -0.0280024828
93.0081000000 78.6992000000 2432.5200000000 -0.2104779517 -0.9775967721 0.0018928902
-195.0180000000 -181.9215000000 2129.5400000000 0.9725057334 -0.2261298603 0.0556586450
-19.1304000000 -295.6520000000 2168.1200000000 0.8482533585 -0.5204344793 -0.0980519888
-142.8340000000 -316.1130000000 2422.6700000000 -0.7964739666 -0.5877836286 -0.1419141516
-279.6090000000 207.9480000000 1949.1900000000 0.9915660853 -0.0203102716 0.1280007474
-128.1160000000 -295.6520000000 2168.1200000000 0.9945457066 0.0962166123 -0.0402641417
145.2103372549 -189.9052549020 2355.9100000000 0.1084715237 -0.2145823854 -0.9706638596
-17.5385000000 -3.0769200000 2301.5400000000 0.7657488128 0.6423050045 -0.0327572421
1.3349865000 -222.6345000000 2220.4200000000 0.9937860333 -0.0629054024 -0.0918271762
-72.1708500000 -149.7507500000 2129.5400000000 -0.2262026383 -0.9695674701 -0.0936551517
86.4516000000 -238.3872500000 2412.9000000000 -0.9991222103 0.0348243933 0.0232824095
-10.6870500000 -48.8549500000 2283.9700000000 0.9886243919 -0.1241978121 -0.0848334555
-107.8571428571 -342.9464285714 2337.5000000000 -0.4405621703 -0.8709729767 -0.2175110295
-198.8790000000 91.2150000000 2796.2600000000 0.0169459563 0.9921020848 -0.1242830955
197.1550000000 279.3863333333 2503.7700000000 -0.9976239452 0.0562890290 0.0397241633
-11.6726000000 -258.2207500000 2129.5400000000 0.9997367304 -0.0042894089 -0.0225404261
175.5040000000 220.1550000000 2319.3800000000 0.8799205501 -0.0000936769 -0.4751208444
5.5737700000 -108.8520000000 2452.4600000000 0.4299242825 0.9028633892 0.0016768349
58.3783500000 -230.8110000000 2021.6200000000 0.9640183162 0.2598590067 -0.0560533912
-283.0765000000 103.2775000000 2001.3400000000 0.9895010034 0.0605353447 0.1312373280
-10.5774285714 158.6547142857 1797.0000000000 0.2857583118 -0.0502602844 -0.9569828060
-130.0340000000 -282.3368000000 2056.3600000000 -0.0053688252 -0.9704527120 -0.2412316512
-371.9430000000 259.7155000000 2836.0200000000 -0.9518789485 0.2376284778 -0.1935437261
-150.9730000000 -285.1360000000 2328.4000000000 0.9805246836 0.1842738037 0.0679301851
-147.0190000000 -40.4528000000 2258.1100000000 0.9890045541 0.1409029011 0.0449039471
83.1128000000 72.2179000000 2328.4000000000 0.2978821082 0.9503630382 -0.0898684886
-165.8365000000 -12.9811433333 2258.1100000000 -0.0545912825 0.9955511277 -0.0767967705
35.7683158576 -199.8483495146 1974.9200000000 -0.0268731132 -0.1343424211 -0.9905705173
41.3409644737 -199.9583157895 1974.9200000000 0.3941575419 -0.0007399071 -0.9190425913
-190.2290000000 -143.2060000000 2283.9700000000 0.8207207155 -0.5710020170 0.0193443481
-149.0153333333 -269.8440000000 2181.2933333333 -0.9189252477 -0.3736391453 -0.1263731706
70.5185000000 -204.4440000000 2216.3000000000 0.9966116504 -0.0050530358 -0.0820955852
-55.9139666667 64.0000000000 1930.3200000000 -0.0712928314 0.9937269989 -0.0861625426
72.1809000000 -257.4506666667 2139.6933333333 0.9976103805 -0.0471083777 -0.0505403756
-404.4868400000 302.0981600000 2129.5400000000 -0.0027944744 -0.9991986633 0.0399277131
-384.7471250000 -150.3501875000 2328.4000000000 0.0000000000 0.0000000000 -1.0000000000
-133.2445000000 -211.9732500000 2001.3400000000 -0.6114672402 -0.3039849559 -0.7305483972
42.8668750000 -140.3410000000 2042.3200000000 0.8620282906 0.5016892148 -0.0722160503
97.1852000000 50.9630000000 2216.3000000000 0.9028274714 0.4076627479 -0.1367978104
-201.3972214286 179.9616642857 1824.3900000000 -0.5366322206 -0.0139676489 -0.8437006368
3.9669433333 -288.7053333333 2472.7300000000 -0.9998811132 -0.0145819516 -0.0050125955
-190.7915000000 -262.4460000000 2152.5200000000 0.9412707803 0.3262033946 0.0871817840
155.9450000000 84.7926000000 2757.6000000000 -0.0532731636 -0.9983419545 0.0218016512
96.1975200000 -300.2466000000 2462.5500000000 -0.9973665119 -0.0669683342 0.0278439083
24.9084000000 -117.8020000000 2191.9400000000 0.6260964362 0.7797310767 0.0047645176
-193.4472500000 -188.6690000000 2042.3200000000 0.9783451947 -0.1970923443 0.0632082894
4.9792500000 -297.8256000000 2482.9900000000 0.9997106101 0.0211285126 -0.0115013941
-318.7600000000 94.8837000000 2319.3800000000 0.9607151577 -0.2711176014 -0.0593433405
-150.7910000000 -252.0860000000 2152.5200000000 0.9995122596 -0.0013701115 0.0311988082
264.4764397906 180.5366492147 2337.5000000000 0.1526121423 -0.3472572578 -0.9252685723
13.7674000000 -340.0930000000 2783.2600000000 -0.0000000000 -0.0000000000 -1.0000000000
-21.9748400000 -61.2502800000 2080.6760000000 0.9913572332 -0.1297013836 -0.0197075432
-108.5214705882 -123.6248235294 2021.6200000000 -0.3767295014 -0.4765053035 -0.7943661489
-85.4251520000 -284.5350800000 1981.4600000000 -0.0994149328 -0.8897902112 -0.4454099811
-34.4934668675 62.9148433735 1789.1383734940 0.1845172442 -0.3506062138 -0.9181659270
-0.9677405000 -293.5485000000 2412.9000000000 -0.9967138125 0.0801297350 -0.0118659845
-432.6105769231 -271.3557692308 2337.5000000000 0.3283059698 -0.1629820315 -0.9304042388
-64.5679327078 -250.2916327078 1941.4603485255 0.3501892092 -0.3957679639 -0.8489612691
75.3846000000 76.6154000000 2301.5400000000 -0.3513805086 -0.9362311454 0.0017264188
-39.7351000000 -175.6290000000 1981.4600000000 0.8481258876 0.2537872095 -0.4650532562
58.2896000000 -228.7090000000 2029.8500000000 0.9692525426 0.2396441984 -0.0558584536
-208.9920000000 -258.6043333333 2319.3800000000 0.9653494095 0.2433484870 0.0942445304
-130.2130000000 -187.6990000000 1974.9200000000 -0.7718628709 -0.0628155752 -0.6326783638
-42.6054000000 -336.5520000000 2292.7200000000 0.3506310423 -0.9260790314 -0.1394112610
60.6897000000 -135.8620000000 2579.3100000000 0.9900526653 -0.0964416711 -0.1024437600
-287.2008571429 100.8449571429 2032.4128571429 0.9899814207 0.0664562254 0.1245807238
153.4870000000 88.2335000000 2757.6000000000 -0.1202808961 -0.9927054474 0.0082704772
295.3360000000 -40.1581062500 2365.2200000000 0.0000000000 0.0000000000 -1.0000000000
-144.3680000000 -92.3627000000 2292.7200000000 0.9692753196 -0.2459773618 -0.0007016089
-148.4127500000 -260.4762500000 2374.6000000000 0.9777309422 0.2098073648 0.0048035704
-179.7330000000 -227.0667500000 1994.6700000000 -0.5874127430 -0.3476108108 -0.7308303453
-141.0250000000 -190.5145000000 2060.7912500000 0.9976918967 0.0510000185 0.0448316560
0.9795920000 -313.4690000000 2442.4500000000 0.9890491660 -0.1377706268 -0.0529244900
-198.5186666667 -269.7960000000 2241.2000000000 0.9477509997 0.3070592148 0.0865024925
-454.1239957806 -279.8903459916 2328.4000000000 0.2156659814 -0.0749089869 -0.9735896611
-374.6875000000 -260.3125000000 2337.5000000000 -0.0000000000 -0.0000000000 -1.0000000000
112.6240000000 69.7872000000 2121.9900000000 0.0027163564 -0.9999067293 0.0133848437
22.9538105263 -240.6211578947 2008.7615789474 -0.9948195060 0.1012358135 0.0092444927
-261.7900000000 45.4475000000 2328.4000000000 0.1339045386 -0.3638889750 -0.9217669925
-22.3482000000 78.3806000000 2422.6700000000 -0.0127443527 0.9864700295 -0.1634455944
-180.3942857143 -246.1075714286 2010.9471428571 -0.6889289209 -0.4531139916 -0.5657425674
30.4059000000 -267.8473333333 2208.1200000000 0.9910615017 -0.1152700713 -0.0671558672
-22.1140000000 -289.1944000000 2110.0200000000 0.8129638700 -0.5727972852 -0.1048475855
-316.0815000000 72.4898000000 2442.4500000000 0.0024336674 0.9991925798 -0.0401031892
-74.6469146429 -58.7959903571 2001.3400000000 0.0699077356 -0.4013359425 -0.9132592019
131.4100000000 66.0984000000 1961.9700000000 0.6642878533 -0.7395688914 -0.1084412414
-146.4593333333 -79.5330833333 2328.4000000000 -0.9599102553 -0.0353838837 -0.2780652488
-143.1316000000 -270.1394000000 2319.3800000000 -0.9975117532 0.0384712202 -0.0590784860
34.3750000000 -279.8750000000 2337.5000000000 -0.9929311394 0.1148722899 -0.0298681996
-201.9750000000 -0.3665533333 2061.0866666667 0.8399130882 0.5400518200 0.0537590547
7.3362400000 -318.6030000000 2613.1000000000 -0.9972029904 0.0743172092 0.0079465903
-15.2809000000 -84.4944000000 2241.2000000000 -0.9975915258 -0.0416299184 -0.0554806053
195.5640909091 300.0104242424 2099.6500000000 0.0107887200 -0.9995119750 0.0293157868
-120.9690000000 -288.4430000000 2070.5900000000 0.4523924273 0.8846469209 0.1128756707
-19.6633000000 -184.2420000000 2014.8100000000 0.8727236285 0.4336970613 -0.2241881517
-286.9480000000 70.8652125000 2032.7825000000 -0.9296451561 -0.3012426163 -0.2121621311
285.2173750000 -100.2371250000 2365.2200000000 -0.0000000000 -0.0000000000 -1.0000000000
93.2761000000 10.0715166667 2568.2400000000 0.6859457843 0.7269210532 -0.0326215168
-309.8510000000 126.5670000000 2232.8400000000 0.9921377247 0.0094221034 0.1247956697
23.4818000000 -119.6762500000 2422.6700000000 -0.5654740764 -0.8232997097 -0.0491595040
-207.0364285714 -169.3949732143 2346.6700000000 -0.7341512888 0.3243050491 -0.5965300666
-131.5176250000 -239.9003750000 2012.2750000000 -0.7799492119 0.0381088362 -0.6246814736
-317.1980000000 190.5060000000 2328.4000000000 0.8471082106 -0.5249257811 0.0828287621
-140.8960000000 -272.2390000000 2232.8400000000 0.9866621506 0.1237403414 -0.1057644952
-145.3121250000 -30.1061875000 2180.9625000000 0.9599935605 0.2720126157 0.0664943664
-340.2490000000 331.9500000000 2482.9900000000 -0.3091445813 -0.9509391933 0.0120115947
73.4604304124 110.2185257732 1841.2300000000 0.6883827571 -0.0370923381 -0.7243986044
-182.1490163934 -240.1358524590 2009.4906557377 -0.7479546223 -0.4671493999 -0.4715244650
161.8395000000 71.2643500000 2292.7200000000 0.0574788648 -0.9881963584 -0.1420004839
9.9115000000 -313.2740000000 2647.7900000000 0.9987649515 -0.0268192864 -0.0418246052
183.2380000000 73.0159000000 2374.6000000000 -0.2781684085 0.9179223810 -0.2829148970
-5.6737600000 -154.3260000000 2121.9900000000 0.3472466275 0.9370007814 0.0380698749
-26.2606352113 -259.8716150235 1991.4328169014 0.8859796470 -0.2279943315 -0.4038052128
214.4474637681 82.8804347826 2337.5000000000 0.1838495249 -0.1296925154 -0.9743609206
1.9562403333 -219.9226666667 2310.4200000000 0.9452591036 0.3263055624 -0.0031475354
21.8775500000 -120.1630000000 2442.4500000000 -0.5347186069 -0.8439499784 -0.0427135262
-151.7650000000 -103.5290000000 2200.0000000000 0.6126392611 -0.7901572093 -0.0180199984
-153.2310000000 -251.3845000000 2301.5400000000 0.9975227706 -0.0399953527 -0.0578678996
156.3426857143 299.0896571429 2081.5034285714 0.5421496207 -0.8389936145 -0.0465134771
-444.5135625000 -230.0388750000 2328.4000000000 0.0000000000 0.0000000000 -1.0000000000
-19.3336148148 -249.4437777778 2001.3400000000 0.9405476934 -0.0633233662 -0.3337067392
-5.8252416667 -237.9288333333 2904.8500000000 0.9499090945 0.3103262021 -0.0370183798
174.6560000000 78.1679000000 2283.9700000000 -0.8093523290 0.5834151247 -0.0676431807
-324.6875000000 -280.3125000000 2337.5000000000 -0.0131731278 -0.0640983432 -0.9978566386
93.8691166667 69.9327833333 2270.9800000000 -0.3066804918 -0.9510015872 0.0392817643
153.6745000000 89.3023000000 2783.2600000000 0.0522665639 0.9972835506 -0.0519011169
-334.6875000000 -280.3125000000 2337.5000000000 0.1196801173 -0.1218168645 -0.9853107738
-344.3152127660 298.3569574468 2059.8295744681 0.0139188670 -0.9978669185 0.0637799193
70.6748000000 70.1840473684 1835.5800000000 0.6272881011 -0.3032036498 -0.7173403550
-354.6875000000 -280.3125000000 2337.5000000000 -0.0000000000 -0.0000000000 -1.0000000000
144.9830000000 250.6485000000 2042.3200000000 0.9894058141 -0.1102155421 -0.0944916365
-151.5490000000 -222.8062500000 2179.9700000000 0.9863674454 0.1645319419 -0.0029159542
-205.7150000000 -203.1920000000 2220.4200000000 0.9779799032 -0.2042544957 0.0428416843
-142.3220000000 -242.0970000000 2241.2000000000 0.9804565615 0.1644365940 -0.1080071185
32.4985954023 -289.4805172414 2355.3789655172 0.9411361061 0.0912045602 -0.3254912563
-242.2651597633 70.0900047337 1863.6569822485 -0.7352075527 -0.2463538782 -0.6314900008
-201.2120000000 9.8765444444 2014.8100000000 -0.9723161934 -0.2111118990 -0.1001647954
-374.6875000000 -280.3125000000 2337.5000000000 -0.0000000000 -0.0000000000 -1.0000000000
-440.5500000000 -282.4750000000 2337.5000000000 0.2108739741 -0.1561532694 -0.9649602704
32.1293857143 -271.8705714286 2258.1100000000 0.9926586379 -0.1030177473 -0.0633732779
-258.4280000000 72.8455000000 2432.5200000000 0.0273384758 -0.9992523109 0.0273391087
4.2222222222 -298.4443333333 2493.3300000000 0.9977455861 0.0239476229 -0.0626917600
-149.3105000000 -298.2755000000 2579.3100000000 0.9957538539 0.0853472346 0.0344980011
-146.4710000000 -33.2353000000 2200.0000000000 -0.9972135914 0.0023641311 -0.0745618130
28.3969500000 -120.4580000000 2283.9700000000 0.6293828361 0.7768525446 -0.0194260027
-318.8084285714 90.6343142857 2310.4200000000 -0.9625586502 0.1268751921 -0.2395485975
-164.0000000000 -226.0000000000 2493.3300000000 0.3782320189 -0.9226751170 -0.0749077321
-146.9320000000 -287.4900000000 2384.0600000000 0.9822197956 -0.1848710889 -0.0326642561
-145.1413333333 -22.4354000000 2208.1200000000 0.9978614702 -0.0012084490 0.0653530862
29.7142666667 -239.0473333333 2137.1400000000 0.9991646498 -0.0353586777 -0.0204882042
-189.0758000000 -242.7256000000 2079.2280000000 0.9590635029 0.2623393025 0.1066549942
30.8614000000 -124.6440000000 2241.2000000000 0.6282240617 0.7765243143 -0.0484202184
-278.0319375000 230.0383750000 1938.5356250000 0.9923524457 0.0131995477 0.1227289510
-9.8461500000 -52.3077000000 2301.5400000000 0.9968345711 -0.0532562023 -0.0590306264
-136.5946666667 -248.8250000000 2152.5200000000 0.9604922401 0.2686178519 -0.0727949608
-202.9144000000 70.0878600000 2180.7640000000 0.7359407895 0.5315753830 -0.4193074844
-137.9660000000 80.3390000000 2535.5900000000 0.1908383878 -0.9797418891 -0.0607168876
-24.2214500000 -80.9688500000 2070.5900000000 0.9599062933 0.2797853092 -0.0173230727
-14.8503000000 257.7246363636 1791.6200000000 0.2109537980 0.0741940123 -0.9746762250
-1.6507922000 -310.3490000000 2374.6000000000 -0.9495900053 0.3102830604 -0.0447576164
-149.9001666667 -249.1590000000 2108.2816666667 -0.9761703218 -0.1748023738 -0.1285909525
-152.4786666667 -104.1266666667 2191.9400000000 -0.5846911632 0.8112507969 -0.0028962325
-306.0215000000 71.9354666667 2412.9000000000 -0.0147325759 0.9976877337 -0.0663486037
-374.9481785714 298.7443571429 2070.5900000000 -0.0137251810 -0.9992885947 0.0351272528
34.1353250000 -248.4212500000 2249.6200000000 -0.9957404470 -0.0913074351 -0.0128029066
-27.4809333333 -329.7710000000 2283.9700000000 0.5474475568 -0.8203278768 -0.1654187023
-141.4235000000 -269.6630000000 2241.2000000000 0.9773020044 0.1720752579 -0.1235754744
-224.6875000000 -60.3125000000 2337.5000000000 0.0000000000 0.0000000000 -1.0000000000
285.2173750000 -19.9209500000 2365.2200000000 0.1604698049 -0.1924146356 -0.9681043589
3.9344250000 -286.5575000000 2452.4600000000 0.9993705575 -0.0104333707 -0.0339062467
-192.1740000000 -263.1885000000 2168.1200000000 0.9397841842 0.3306761193 0.0863654517
-30.6306333333 -283.6036666667 2021.6200000000 0.6898072911 -0.7063817135 -0.1587160229
135.1395000000 77.7689000000 2384.0600000000 0.0295335028 -0.9995610299 -0.0023493962
-474.6670000000 361.2440000000 2659.5600000000 -0.0000000000 -0.0000000000 -1.0000000000
86.9767250000 -279.5350000000 2319.3800000000 0.9762062985 -0.1070608151 -0.1885715903
-166.7168000000 -294.4434000000 2042.3200000000 -0.4354480398 -0.8394920852 -0.3250200663
-242.1190000000 63.0464000000 1981.4600000000 -0.0017917815 -0.9997418800 0.0226486857
-7.7821000000 -58.7704200000 2328.4000000000 0.9908884350 -0.1230871783 -0.0546777463
144.1440000000 163.7836666667 2021.6200000000 0.9908082086 -0.0080643106 -0.1350335538
-20.9319000000 -293.6200000000 2144.8000000000 0.8332645993 -0.5384556987 -0.1254414930
35.2590175000 1.9737698750 1961.9700000000 0.3250039255 -0.8595926455 -0.3943005608
-318.3740000000 73.4959000000 2432.5200000000 0.0022781560 0.9987215927 -0.0504974284
135.5725333333 70.8457666667 1952.1626666667 0.9176341811 -0.3935400092 -0.0554415975
-145.9226000000 -79.6279100000 2319.3800000000 -0.9960130589 -0.0532443168 -0.0715753397
-143.1420000000 -269.1190000000 2292.7200000000 -0.9915741526 -0.0549436133 -0.1173111215
32.8442589744 -280.0951965812 2355.5151282051 -0.9080809247 -0.1563373520 -0.3885198405
-242.2318805970 62.9794940299 1863.6523880597 -0.6295951993 -0.6054069620 -0.4869212416
-201.4490000000 2.5347643333 2030.7700000000 0.9459549416 0.3146356398 0.0785726581
-263.0863053435 -231.3187251908 2346.6700000000 0.3127878344 -0.2968115472 -0.9022564359
-15.7944333333 -77.9698333333 2272.4166666667 0.9968981719 -0.0631108965 -0.0470217994
195.3657586207 299.3058620690 2070.5900000000 0.0265742996 -0.9993198798 0.0255652984
-154.5677522727 219.9522636364 1799.2131818182 -0.3497759761 -0.0322447223 -0.9362782943
-121.1251666667 -286.3116666667 2059.9050000000 -0.4232699021 -0.8841324673 -0.1978695788
-148.5828000000 -250.0166000000 2014.8100000000 0.4287582367 -0.2314529469 -0.8732673748
-141.8727500000 -181.1237500000 2241.2000000000 -0.9148588526 0.4022099237 -0.0355029163
-54.9226876833 -230.1238768328 1941.9377126100 0.6458936027 0.0471195163 -0.7619719189
-154.1176666667 -13.5294000000 2200.0000000000 0.0773069259 -0.9406492421 -0.3304582310
99.5633000000 85.2402000000 2613.1000000000 -0.2827249779 -0.9591886456 0.0048712403
-276.8090000000 80.6994500000 1961.9700000000 0.9906644465 0.0416898777 0.1297917891
128.3891186441 159.9728813559 1918.6820338983 0.9345914362 -0.0265045942 -0.3547342016
-364.8248750000 -99.9221437500 2328.4000000000 0.0000000000 0.0000000000 -1.0000000000
55.6521833333 -20.7641666667 2365.2200000000 -0.2254703370 0.9716744378 -0.0707948735
-122.5805000000 77.4193500000 2412.9000000000 -0.1082370128 0.9929795025 -0.0477122275
179.0770000000 186.1540000000 2301.5400000000 0.9823631147 -0.1411033107 -0.1226889017
-64.7247362500 -230.1637275000 1936.5857250000 0.3094564615 0.0420559119 -0.9499831571
-16.1269800000 -179.8096000000 2374.6000000000 0.5527886960 -0.8174144676 -0.1620439622
19.3200500000 -206.3690000000 2140.9700000000 0.9480142641 0.3182240157 -0.0015591500
-25.2362666667 -328.9906666667 2292.7200000000 0.5797685626 -0.7980589142 -0.1642266219
-152.7270000000 -313.4550000000 2720.0000000000 -0.0000000000 -0.0000000000 -1.0000000000
47.3649631579 -246.2397894737 1961.9700000000 -0.0643733926 -0.3685626455 -0.9273713618
8.0349300000 -299.0390000000 2613.1000000000 0.9994667823 -0.0311374339 -0.0098291013
185.5262588235 19.8260843137 2355.8737647059 0.1600460572 -0.2172939599 -0.9628959417
275.5905625000 79.6850375000 2355.9100000000 0.0824965880 -0.0872641064 -0.9927634606
-334.6875000000 -250.3125000000 2337.5000000000 -0.0000000000 -0.0000000000 -1.0000000000
92.5101214953 -320.2648878505 2355.9100000000 0.3377939652 -0.0591188059 -0.9393615938
-163.2170000000 -13.1468750000 2092.3100000000 0.1919149376 -0.9784975001 -0.0755731367
-148.8540000000 -239.8323877551 2013.4304081633 0.5358551939 -0.3091540568 -0.7856735838
1.0840090000 -313.0623333333 2432.5200000000 0.9906028313 -0.1206808591 -0.0643596213
-198.1955000000 -272.7820000000 2249.6200000000 0.9508759438 0.2944646519 0.0955275264
-8.4573914493 -140.7116666667 2030.1700000000 -0.8964917514 -0.3506550476 -0.2708201937
3.0355730000 -271.7470000000 2365.2200000000 -0.9482811227 0.0098735781 -0.3172781506
13.7815000000 -180.0000000000 2200.0000000000 0.8989967596 0.4373528116 -0.0229639811
-453.6434166667 -100.1550250000 2319.3800000000 0.0000000000 0.0000000000 -1.0000000000
-144.8831987952 -112.6890662651 2035.3700000000 -0.2153428503 0.5410920644 -0.8129248641
125.2173750000 -310.1976250000 2365.2200000000 0.0860282149 -0.0699345860 -0.9938351473
-224.6274375000 -280.1568125000 2346.6700000000 0.0000000000 0.0000000000 -1.0000000000
-85.0526000000 -146.8070000000 2099.6500000000 -0.1236181515 -0.9829574778 -0.1360630349
212.1740000000 91.8260666667 2601.7400000000 0.9710993854 -0.1957471923 -0.1365614162
-151.3940000000 -183.5860000000 2384.0600000000 0.9292542128 -0.3681772765 0.0305303303
-150.4690000000 -242.2143333333 2160.2900000000 -0.9001277704 0.0474006211 -0.4330394648
71.4030000000 -210.1490000000 2232.8400000000 0.9974209975 -0.0297462713 -0.0653185506
-9.9173600000 -107.1070000000 2472.7300000000 0.6945352251 0.7185362975 -0.0364199150
6.6286625000 -106.8067500000 2110.7650000000 0.5184300501 0.8550129777 0.0135311182
91.8518666667 -278.0950000000 2374.6000000000 -0.9922899784 -0.1166427482 -0.0418935335
-334.9929230769 -136.5681538462 2328.4000000000 0.1831858983 -0.3155937629 -0.9310443080
52.8873666667 -200.0443333333 2001.3400000000 0.9903675788 0.0038317251 -0.1384101756
-139.0858571429 -203.3381428571 2081.9171428571 -0.9971467476 0.0399626221 -0.0640418037
-143.8850000000 -32.5180000000 2152.5200000000 -0.9962584739 -0.0515822153 -0.0693421103
-341.1200000000 327.0400000000 2393.6000000000 -0.7204165221 -0.6886922271 -0.0818721632
78.2407375000 109.5956312500 1846.9100000000 0.7402635308 -0.0258913290 -0.6718180885
1.0810802500 -154.1895000000 2021.6200000000 -0.8423902991 -0.5235772879 -0.1274574734
-184.1080000000 -239.4596000000 2021.6200000000 -0.9214963988 -0.3421888853 -0.1837148709
163.6640000000 71.1450500000 2283.9700000000 0.0409394964 -0.9991608277 -0.0012641645
-24.4582727273 -178.4155454545 2030.9790909091 0.7322455124 0.6793693627 -0.0476841541
-94.5335853801 -250.4243625731 1941.0943859649 -0.1995338148 -0.4582180462 -0.8661538425
88.6890818182 -279.1840909091 2351.7100000000 0.9699934491 0.1334531068 -0.2032313388
97.4059000000 -303.2640000000 2503.7700000000 -0.9891995420 0.1387600946 0.0472218417
-195.9148750000 -190.3876250000 2080.4950000000 0.9869142157 -0.1568691570 0.0373148565
17.5466000000 -18.3821263158 2328.4000000000 -0.1585787057 -0.9020729314 -0.4013940962
133.2097142857 151.4282857143 1951.0100000000 0.9905595719 0.0120197185 -0.1365549742
258.5778750000 305.1368750000 2223.5100000000 0.0274082050 -0.9987921538 0.0407801888
-14.5273666667 -163.3830000000 2232.8400000000 0.1215404508 -0.9892816769 -0.0809301090
-233.6150000000 86.3850000000 2809.3900000000 -0.0580291153 -0.9983140029 -0.0013316857
-460.0000000000 -320.3125000000 2337.5000000000 0.1200303847 -0.1296298602 -0.9842706976
96.0000000000 -302.0000000000 2493.3300000000 0.9895518777 -0.1321188257 -0.0577208566
-154.2187500000 -269.9218750000 2337.5000000000 0.9971559888 0.0368408232 -0.0657471499
209.9605000000 -91.6996000000 2365.2200000000 0.2856615144 -0.3066049522 -0.9079597472
-16.8610000000 -213.8120000000 2683.4100000000 -0.9464106146 -0.2838992393 -0.1539745776
-16.3432428571 -218.5080000000 2042.3200000000 0.9504804187 -0.3047449056 -0.0609714371
-101.1595500000 -317.3910000000 2168.1200000000 0.4336062092 0.8905044267 0.1377952156
12.5619666667 -114.3800000000 2472.7300000000 -0.5193278342 -0.8536357506 -0.0400575320
175.4331250000 -10.0787393333 2355.9100000000 -0.0000000000 0.0000000000 -1.0000000000
-404.7981578947 298.7790526316 2060.0915789474 0.0007866367 -0.9989195422 0.0464664330
93.5021000000 -246.4135000000 2524.8900000000 0.9969120590 0.0664497691 -0.0418422608
-153.4630000000 -270.5059166667 2328.4000000000 0.9992598024 0.0323672062 -0.0207896924
-84.7761142857 200.1194285714 1786.2700000000 -0.0000000000 0.0000000000 -1.0000000000
-13.1824000000 -48.3019000000 2258.1100000000 0.9883666137 -0.1262129843 -0.0848629459
-22.2357571429 -79.7611000000 2109.1685714286 0.9906110368 0.1357894721 -0.0158427567
245.3755000000 -69.8814312500 2365.2200000000 0.1539727777 -0.1635967171 -0.9744375290
-6.4124500000 -311.5330000000 2328.4000000000 0.9040784502 -0.4201365582 -0.0782778919
67.8388250000 -209.5237500000 2191.9400000000 0.9969100416 -0.0240840978 -0.0747684768
63.4686000000 -286.9370000000 2208.1200000000 0.5402559102 -0.8322205470 -0.1246295015
153.5436666667 290.8070000000 2099.6500000000 0.9379908865 -0.3381915109 -0.0761550974
-444.5135625000 -160.3113125000 2328.4000000000 0.0000000000 0.0000000000 -1.0000000000
11.0510333333 -326.0060000000 2695.5000000000 0.9987666568 -0.0155628612 -0.0471483041
-424.6875000000 -310.3125000000 2337.5000000000 -0.0000000000 -0.0000000000 -1.0000000000
-374.5901388889 300.5941111111 2110.5580555556 0.0098596918 -0.9984495270 0.0547843812
34.3908200000 -250.2376000000 2292.7200000000 -0.9726032331 -0.2316115144 -0.0199764204
-22.4086000000 -1.9063554444 2139.6933333333 0.4650449806 0.8852344772 -0.0096481281
91.8032750000 -278.6885000000 2452.4600000000 0.9573407586 0.2887163348 -0.0118974783
-9.5019200000 -28.5057500000 2292.7200000000 0.9872665791 -0.1494741509 -0.0544259128
-153.2200000000 -277.9660000000 2535.5900000000 -0.9575140294 -0.2586467468 -0.1275489859
141.6220000000 187.5680000000 2021.6200000000 0.9915069567 0.0075393207 -0.1298349473
-151.2330000000 -201.6440000000 2049.3200000000 0.9844894771 0.0672254116 -0.1620531192
-148.2885000000 -241.8919166667 2021.6200000000 0.7927153478 -0.1527048471 -0.5901555786
34.1486666667 -281.8223333333 2152.5200000000 -0.5467141469 -0.8206879511 -0.1660570041
132.9354782609 110.1510434783 1938.4843478261 0.9819851618 -0.0161072668 -0.1882702788
4.3724725000 -290.3645000000 2422.6700000000 0.9983693818 -0.0474838764 -0.0316837323
-142.0640000000 -159.4310000000 2129.5400000000 -0.9331300698 0.3293497427 -0.1442117186
-10.0000000000 -207.8570000000 2671.4300000000 0.9067186640 0.4217235531 -0.0032417706
-15.0052469231 -219.3887692308 2049.3200000000 0.9561621535 -0.2532048737 -0.1471095785
-187.4851576087 179.6537445652 1818.8400000000 -0.4883914497 -0.0331520914 -0.8719946850
-106.4706666667 -320.1960000000 2200.0000000000 0.4325268849 0.8898538857 0.1451914457
-110.0000000000 -318.8240000000 2200.0000000000 -0.4752245094 -0.8591459494 -0.1898154454
90.0418000000 10.2649933333 2503.7700000000 0.3271193276 0.9439773853 -0.0435848769
-5.5944072857 58.5814142857 2092.3100000000 -0.0383341987 -0.9907710796 -0.1300121420
84.0433000000 71.0469000000 2160.2900000000 -0.3574347648 -0.9314534344 -0.0680800148
-317.0366666667 87.8671666667 2292.7200000000 -0.9818213905 -0.0507826285 -0.1828876207
-150.5560000000 -247.2220000000 2077.7800000000 -0.9689568419 -0.1651745637 -0.1839565220
-274.5525625000 -40.1556437500 2328.4000000000 -0.0000000000 -0.0000000000 -1.0000000000
-185.3695000000 -139.7665000000 2328.4000000000 -0.7487026967 0.6435328796 -0.1590902410
-301.9353333333 191.5413333333 2144.8000000000 0.9952242742 0.0160140394 0.0962922354
-52.4324500000 -149.9325000000 2021.6200000000 0.5086588695 0.7761484610 -0.3726388613
-139.2480000000 -271.5790000000 2249.6200000000 -0.9922445160 -0.0299412224 -0.1206413846
-143.3445714286 -180.3608571429 2042.3200000000 -0.9411990373 0.3219463401 -0.1024447471
-15.0904333333 -324.3410000000 2319.3800000000 0.8007976252 -0.5869057436 -0.1194353871
89.3333000000 -271.3330000000 2493.3300000000 0.9863778554 0.0719798995 -0.1479108531
-269.5850000000 69.4340000000 2258.1100000000 -0.0015024600 -0.9997739330 0.0212090881
33.8580600000 15.8658060000 1930.3200000000 0.0677779606 -0.9807359166 -0.1832026471
91.7460500000 -290.3175000000 2374.6000000000 -0.9030271554 -0.3931964297 -0.1730275244
-194.6908960396 169.9434306931 1821.4364108911 -0.5351886022 -0.0264364481 -0.8443188227
-190.2470000000 -255.5480000000 2114.4900000000 0.9471217254 0.3045969105 0.1009017311
-304.5641403509 -99.4060912281 2328.4000000000 0.2586040716 -0.2299625410 -0.9382116840
-41.2121000000 75.7576000000 2266.6700000000 -0.0617361171 -0.9975573230 -0.0326808701
2.1052650000 -223.4585000000 2249.6200000000 0.9922083882 0.1236074910 -0.0156109784
81.5037500000 -269.7745000000 2249.6200000000 0.9932180729 -0.0715537467 -0.0916401717
-84.8054800000 -300.0134000000 2042.3200000000 -0.0862870730 -0.9839174605 -0.1564000381
-354.4186250000 30.0775250000 2319.3800000000 -0.0000000000 -0.0000000000 -1.0000000000
-7.7419350000 87.0046000000 2757.6000000000 0.0476764712 0.9969873908 -0.0611808524
-26.0241000000 75.1807000000 2403.2100000000 -0.0103673850 -0.9998827659 0.0112681720
-144.1220000000 -269.9235000000 2283.9700000000 -0.9921388712 -0.0973115806 -0.0786823778
33.5385000000 -276.9230000000 2301.5400000000 -0.9932981431 0.1149533874 0.0120215490
85.7370666667 -259.4420000000 2384.0600000000 0.9956349820 0.0793414403 -0.0491519936
-16.4012702703 9.2817206306 2021.6200000000 -0.6921791832 -0.5099592512 -0.5107147350
-444.6511176471 -59.8449625000 2319.3800000000 0.0000000000 0.0000000000 -1.0000000000
-203.4890000000 -240.9646250000 2220.4200000000 0.9729063913 0.2280394358 0.0380942193
-43.6923000000 76.6154000000 2301.5400000000 0.1042976603 0.9649839229 -0.2406824185
-106.7576666667 -293.9700000000 2042.3200000000 0.4850895935 0.8647800626 0.1297826246
276.8099435484 -251.5410806452 2374.6000000000 0.3864480144 -0.1394750987 -0.9117042443
57.0629500000 -162.5175000000 2092.3100000000 0.9561156762 0.2833413473 -0.0745687246
-52.1501750000 -300.0680000000 2042.3200000000 0.2608289547 -0.9473256068 -0.1858559958
-122.1796564417 -230.0275398773 1954.7784049080 -0.8400847074 0.0289831443 -0.5416804055
-324.6875000000 -250.3125000000 2337.5000000000 -0.0000000000 -0.0000000000 -1.0000000000
-341.0162777778 75.9690000000 2319.3800000000 0.1919558794 -0.3086278262 -0.9316124759
56.4384000000 -200.2740000000 2049.3200000000 0.9969657850 -0.0005515673 -0.0778390601
-130.5346000000 -204.1448000000 1974.9200000000 -0.8735138629 0.1300583542 -0.4691037793
-354.8638750000 -129.8054375000 2328.4000000000 0.0000000000 0.0000000000 -1.0000000000
-164.0600000000 -12.1024106667 2032.6100000000 0.2389308125 -0.9704885888 -0.0326184896
-117.1765549451 40.4476527473 1835.5800000000 0.8520281722 -0.2526587663 -0.4584883221
235.2569375000 -279.8419375000 2365.2200000000 -0.0140693387 -0.1194641892 -0.9927388182
-37.1875000000 68.7500000000 2337.5000000000 -0.1372011671 -0.9904491725 0.0136483145
-45.3046097744 -139.4739097744 2035.1365413534 0.5136809727 -0.4061154850 -0.7557791153
-18.0774333333 -166.3923333333 2241.2000000000 -0.2752812998 0.9593349256 0.0624236051
215.8730000000 263.8095000000 2374.6000000000 0.9722049588 0.2011855655 -0.1197576147
-330.1220000000 73.7959000000 2442.4500000000 0.0647852793 0.9971961450 -0.0374528501
205.5336250000 -279.8419375000 2365.2200000000 -0.0000000000 0.0000000000 -1.0000000000
128.0091379310 189.5780114943 1919.5102298851 0.9396321578 0.0115119932 -0.3419925176
-143.5380000000 -312.8374000000 2160.2900000000 0.4956542755 -0.8383619110 -0.2268835502
-63.9379992908 52.2960680851 2056.3600000000 0.1306210563 0.4993238153 -0.8565126193
-172.1985000000 -123.1205000000 2121.9900000000 0.7856401342 -0.6185792422 0.0113710452
155.5731250000 -279.8419375000 2365.2200000000 -0.0000000000 0.0000000000 -1.0000000000
55.0116666667 -270.9556666667 2092.3100000000 0.5532660579 -0.8156136909 -0.1693250611
8.6956550000 -317.9130000000 2601.7400000000 -0.9957824541 0.0906560050 0.0140993886
-191.7730000000 -250.2126666667 2121.9900000000 0.9547487458 0.2835290125 0.0898116440
275.0988125000 -140.0790000000 2365.2200000000 0.0000000000 0.0000000000 -1.0000000000
175.1545000000 79.6476000000 2636.1200000000 -0.0315444659 0.9985199619 -0.0443038634
-164.7930000000 -227.8340000000 2757.6000000000 0.9888351784 -0.0910287473 -0.1179777825
145.4545625000 -279.8419375000 2365.2200000000 0.0000000000 0.0000000000 -1.0000000000
70.3759000000 -181.6540000000 2249.6200000000 0.9750892006 0.2032816686 -0.0887559238
135.3360000000 -279.8419375000 2365.2200000000 0.2351921743 0.0771552334 -0.9688816806
32.9771000000 -270.2290000000 2283.9700000000 0.9971387280 -0.0671498272 -0.0347168242
-251.1110000000 70.1587000000 2374.6000000000 0.1138070929 -0.9934020676 0.0141519511
205.1913378378 69.3304454955 2347.2110810811 0.0248742144 -0.4043327011 -0.9142736681
-18.4151000000 -79.6981500000 2258.1100000000 0.9990474492 -0.0189458757 -0.0393096428
-185.3285000000 -138.2240000000 2310.4200000000 0.8026042816 -0.5964221769 0.0103418606
-304.5006666667 187.9183333333 2160.2900000000 -0.9870746318 -0.0230167950 -0.1585998059
-113.8933466135 -80.9256095618 2013.9212350598 -0.5274357049 0.2466624120 -0.8130001425
-166.1075000000 -4.2150516667 1930.3200000000 0.0775670875 0.9961693174 -0.0403737295
-144.6716818182 -180.0065909091 2057.6490909091 0.9751401275 -0.2058344210 -0.0820604835
-15.6250000000 -322.1875000000 2337.5000000000 0.8031095285 -0.5822935833 -0.1262904119
89.9174000000 -269.0910000000 2472.7300000000 0.9956606996 0.0861087576 -0.0352853107
57.9983000000 -272.1582000000 2110.0200000000 0.6371094932 -0.7604956687 -0.1254505144
13.9560313008 -169.8982804878 1990.2769512195 -0.8650374444 -0.1061724602 -0.4903443978
-190.0350000000 -250.1055000000 2099.6500000000 0.9571430517 0.2714473397 0.1009629650
-8.3003390000 -209.9111000000 2042.3200000000 0.9703089686 -0.2224333870 -0.0949941775
174.2355714286 80.6015142857 2624.5600000000 -0.0511424442 0.9976242600 -0.0461550247
-8.3050875000 -108.3055000000 2535.5900000000 -0.7811025734 -0.6207790687 -0.0671722979
-147.6920000000 -13.8461500000 2301.5400000000 0.8611227970 -0.5081868516 -0.0146168493
106.3010000000 88.4018000000 2732.4200000000 -0.1710285924 -0.9822226331 -0.0773816489
0.2555910000 55.7188000000 1911.8200000000 0.9941812714 0.0815118706 -0.0704231104
285.3968750000 -280.3174375000 2374.6000000000 -0.0000000000 -0.0000000000 -1.0000000000
-423.7500000000 -230.6250000000 2337.5000000000 0.1600695514 -0.2117150287 -0.9641340598
95.4330437500 -189.9213125000 2355.9100000000 -0.0756534272 0.0177864634 -0.9969755266
-243.9987272727 70.7236727273 2348.3500000000 -0.0306380932 0.9947733201 -0.0974030232
245.4241304348 300.2982608696 2092.3100000000 -0.0088518743 -0.9990506907 0.0426539777
2.9940225000 58.5218250000 1989.6975000000 -0.9910011711 0.1320667498 -0.0217956963
-6.0150383333 -101.0526333333 2249.6200000000 0.5776621163 0.8154375804 -0.0369869145
277.8600000000 329.8765000000 2462.5500000000 0.1187970199 0.9773185060 -0.1753163025
122.1990909091 80.0582045455 1905.4550000000 0.8893907785 -0.1016074508 -0.4457128774
-84.8309333333 -151.1113333333 2168.1200000000 -0.2174176410 -0.9663354734 -0.1375693364
-248.5110000000 67.5177000000 2121.9900000000 0.0102510303 -0.9995727791 0.0273710739
138.1002857143 99.2677428571 1970.2771428571 0.9929627854 0.0076175048 -0.1181815570
-151.4750000000 -270.8200000000 2452.4600000000 0.9751507315 0.2186725824 -0.0355436712
-34.5226438636 149.9602227273 1790.0879545455 0.2147542341 0.0007449503 -0.9766678371
-11.4385375000 -231.3502500000 2139.0550000000 0.9728120067 -0.2159157710 -0.0837686064
-453.6434166667 -110.0775625000 2319.3800000000 0.2401163393 -0.0452010301 -0.9696911933
-18.4151000000 -315.9750000000 2258.1100000000 0.7816771224 -0.6088854095 -0.1350534499
80.5970000000 -268.0600000000 2232.8400000000 0.9764936568 -0.1535432253 -0.1512766218
-6.3255800000 86.3256000000 2783.2600000000 0.0564756777 0.9975330124 -0.0416939678
-22.7385142857 -60.1878428571 2070.5900000000 0.9908994969 -0.1219477970 -0.0569817680
-13.0778833333 -71.8263000000 2292.7200000000 0.9908533241 -0.0912466667 -0.0994169800
215.5172857143 240.7620000000 2659.5600000000 0.9926918269 -0.0000014679 -0.1206769938
-35.0856645902 -89.8344160656 2014.0785901639 0.6896417234 0.1473200710 -0.7090071156
-1.4229260000 -291.5415000000 2365.2200000000 -0.9946581241 0.0626694625 -0.0820228913
31.1727400000 -247.4004000000 2179.1760000000 0.9971298356 -0.0116629602 -0.0748068601
-201.2525833333 -269.5190833333 2270.2616666667 -0.9529677024 -0.2718940438 -0.1338887115
52.1748040000 -218.7868000000 1981.4600000000 0.7116709569 0.4098638533 -0.5705576840
162.7417500000 74.3548000000 2412.9000000000 -0.0331397177 0.9987618126 -0.0371025705
11.0222000000 -319.2890000000 2659.5600000000 0.9995555188 -0.0214404944 -0.0207140078
-30.0334375000 -176.9900625000 2001.3400000000 0.8806990504 0.3853289206 -0.2754828589
90.6224000000 -257.5930000000 2482.9900000000 0.9991816038 0.0003499812 -0.0404474976
-209.2610000000 95.3695000000 2947.7800000000 0.2387235084 -0.9707588652 0.0252648413
-35.0275200000 -169.1548000000 2113.0000000000 -0.9964613117 0.0797051784 -0.0266821809
-324.6875000000 -230.3125000000 2337.5000000000 -0.0000000000 -0.0000000000 -1.0000000000
-318.8930000000 309.3333333333 2258.1100000000 -0.0231001299 -0.9996580352 -0.0122554715
-304.6875000000 -150.3125000000 2337.5000000000 -0.0000000000 -0.0000000000 -1.0000000000
-387.1261666667 310.6006666667 2292.7200000000 -0.0038799109 0.9428959203 -0.3330649033
-176.0730000000 59.3607333333 2049.3200000000 0.5067930158 -0.8609266647 0.0443409188
-160.0000000000 -274.5950000000 2021.6200000000 0.4063900870 -0.4618060344 -0.7884048984
11.5837000000 -323.6200000000 2707.6900000000 0.9963256068 -0.0608510697 -0.0602696654
-321.1430000000 267.1648571429 2301.5400000000 0.9141964863 -0.4049953670 0.0149511569
53.9949937500 -180.9313750000 2010.5850000000 0.9942794901 0.0751636066 -0.0758862816
8.9868390909 -114.3554545455 2014.8100000000 -0.0106183449 0.9012526691 -0.4331637995
7.3362400000 -310.4513333333 2613.1000000000 -0.9995223325 -0.0306569199 -0.0039064050
-6.7018880000 -269.4038000000 2258.1100000000 0.9981323125 -0.0029570209 -0.0610175613
242.5691428571 284.3852857143 2319.3800000000 0.2025768569 -0.3782696444 -0.9032578221
-131.8920000000 -239.7297500000 2021.6200000000 -0.6415922338 0.0934881936 -0.7613273693
117.4190000000 78.7097000000 2412.9000000000 -0.0747296950 -0.9922287109 -0.0994869738
-34.9580000000 81.3445000000 2514.2900000000 0.0924123583 0.9284917829 -0.3596706342
-318.1677500000 189.3130000000 2283.9700000000 0.9917682495 0.1144068536 0.0575048790
-20.5522590909 -122.8172272727 2042.3200000000 0.2545747691 -0.2838953684 -0.9244431333
81.8462000000 -263.3850000000 2301.5400000000 0.9583183410 0.2837699035 -0.0331752791
-30.0503560000 -242.0132400000 1981.4600000000 0.9004679120 -0.0033649470 -0.4349094350
93.2231000000 -280.3310000000 2472.7300000000 0.9571255458 0.2869644550 -0.0395233001
-354.8638750000 -119.8443750000 2328.4000000000 0.0000000000 0.0000000000 -1.0000000000
24.0154375000 -221.0038750000 2310.4200000000 0.9519981545 0.3057677931 -0.0143377348
-148.1480000000 84.4444000000 2770.3700000000 0.4369381320 -0.8994518636 0.0084506722
-188.3597500000 -139.3143333333 2350.5200000000 0.7879358756 -0.5691234781 -0.2350649328
-53.9130500000 -149.5652500000 2001.3400000000 0.4202571287 0.9072612574 -0.0161541500
-28.4090901235 -190.6736666667 1994.5062962963 0.9216408150 0.1237528485 -0.3677817839
-139.3940000000 -272.1210000000 2266.6700000000 0.9999491530 -0.0044961096 0.0090264259
-141.4930000000 -262.9855000000 2232.8400000000 0.9858683422 0.1438358654 -0.0858769800
-340.6665000000 334.0000000000 2493.3300000000 0.3323098565 0.9396187229 -0.0817729474
70.6748000000 110.2249166667 1835.5800000000 0.6471771532 -0.0097516352 -0.7622772710
-180.7190312500 -237.4750312500 2001.3400000000 -0.4589003129 -0.4366319110 -0.7737978270
10.0740666667 -314.3110000000 2659.5600000000 0.9995555188 -0.0214404944 -0.0207140078
-185.5383846154 -239.4150769231 2032.1853846154 -0.9408718949 -0.3152974978 -0.1238852911
4.3333325000 -287.8332500000 2493.3300000000 0.9895943705 0.1237764069 -0.0733647256
-197.0477500000 -260.9592500000 2208.1200000000 0.9476048904 0.2999557790 0.1098703886
104.5050000000 -276.0360000000 2695.5000000000 -0.0000000000 -0.0000000000 -1.0000000000
82.8336666667 -270.0413333333 2269.5433333333 0.9971002598 0.0600012851 -0.0468072404
-18.4848500000 -317.5760000000 2266.6700000000 -0.7709958379 0.6326848062 0.0726316321
-10.3766000000 -106.4440000000 2503.7700000000 0.9455741629 0.3222218164 -0.0454158954
-424.7104117647 29.9613875000 2310.4200000000 0.1167535881 -0.1363714794 -0.9837537391
80.9987666667 -267.6653333333 2241.2000000000 0.9824343660 -0.1596410243 -0.0966305329
-6.6666700000 85.9259000000 2770.3700000000 0.2069109456 0.9755883247 -0.0735885948
-15.0636333333 -66.7684333333 2283.9700000000 0.9857689537 -0.1497747426 -0.0763354197
-314.7783122677 9.9731989963 2319.3800000000 0.0366831461 -0.4496430101 -0.8924547665
214.6015000000 239.8230000000 2647.7900000000 0.9952275645 0.0033786380 -0.0975227131
-23.0867750000 -60.7174583333 2059.9050000000 0.9844874532 -0.1210769851 -0.1269835353
-1.2800000000 -293.7600000000 2393.6000000000 -0.9937654135 0.1071517587 -0.0308026551
6.0033328571 -230.4391428571 2328.4000000000 0.9901910648 0.1312306304 -0.0479601587
-376.4385000000 297.5340000000 2049.3200000000 -0.0083011709 -0.9955420911 0.0939523041
32.5275000000 -246.1540000000 2191.9400000000 0.9989015019 0.0438640792 -0.0164842957
-150.1860000000 -185.5760000000 2224.5400000000 0.9740096199 -0.2265055049 -0.0007188013
31.2195000000 -124.2280000000 2432.5200000000 -0.5620498021 -0.8250801649 -0.0578164460
195.5124000000 81.4308800000 2432.5200000000 0.9053589366 -0.4203819492 -0.0600350963
-188.3510000000 -156.0700000000 2099.6500000000 0.9496661283 -0.3116780448 0.0314808063
61.6450250000 -340.7792500000 2590.4800000000 -0.1321154839 -0.9806782021 -0.1442766887
-273.5397600000 190.2421400000 1920.2946000000 -0.9461733967 -0.0442178664 -0.3206254569
71.4894000000 -254.1840000000 2121.9900000000 0.9932659390 -0.0762959374 -0.0871877539
27.2549000000 -278.8236666667 2200.0000000000 -0.9848077860 -0.1703771513 -0.0335447596
275.0988125000 -200.1580625000 2365.2200000000 0.2404544450 0.0203761151 -0.9704465332
-150.5140000000 -290.2770000000 2365.2200000000 -0.9789976743 0.1982247624 -0.0476497361
215.3360000000 -179.9210000000 2365.2200000000 -0.0000000000 0.0000000000 -1.0000000000
-114.9505434783 -198.2037347826 1969.5221739130 -0.5711093096 0.2306083464 -0.7878159347
-144.7034285714 -69.7142714286 2301.5400000000 0.9929247117 0.1089643023 0.0471942543
-148.2170000000 -243.9276666667 2319.3800000000 0.9733696402 0.2270794130 0.0314083399
-306.9316000000 67.1755800000 2283.9700000000 0.2953601901 0.9552021737 -0.0187394109
45.6159712871 -233.8269108911 1961.9700000000 -0.0115826511 0.2832958270 -0.9589626252
-15.1483000000 -88.2129400000 2275.2900000000 0.9682207187 0.2479151482 -0.0329654241
-186.9618000000 -249.2458000000 2070.5900000000 0.9509792224 0.2963596026 0.0883714008
31.0448000000 -267.4630000000 2232.8400000000 -0.9888994741 0.1460833392 0.0271567317
-253.8113333333 70.3320000000 2384.0600000000 -0.0826978731 0.9955096809 -0.0460601460
3.6458333333 -249.5312500000 2337.5000000000 0.9142715649 -0.3838969751 -0.1293468908
-188.8508571429 -250.1498571429 2092.3100000000 -0.9515263047 -0.2814777269 -0.1239676604
161.4290000000 82.8571000000 2671.4300000000 -0.0147416776 0.9945829716 -0.1028950707
33.4100000000 -271.7072222222 2292.7200000000 -0.9927130867 0.1160348864 -0.0325058875
295.5555625000 -290.1586666667 2374.6000000000 0.0000000000 -0.0000000000 -1.0000000000
-252.7536666667 69.1436000000 2365.2200000000 -0.1603091552 0.9848446262 -0.0661969559
-15.6458000000 -47.8229000000 2208.1200000000 0.9938884278 -0.1067939796 -0.0279434953
-207.4525000000 72.6996000000 2275.2900000000 -0.5148253991 -0.8503216917 -0.1091229993
62.3529000000 -286.4710000000 2200.0000000000 0.4943699455 -0.8572528828 -0.1439300242
11.6364000000 -325.8180000000 2720.0000000000 0.9990264144 -0.0375460445 -0.0231628573
-7.4906400000 -267.0660000000 2241.2000000000 0.9998202577 -0.0089720016 -0.0167019627
56.2191600000 -260.9316000000 2049.3200000000 0.7883432704 -0.5997928600 -0.1369796082
24.4257666667 -124.1456666667 2514.2900000000 -0.5092162596 -0.8593465462 -0.0471414301
-324.5801250000 280.0000000000 2283.9700000000 -0.7421451812 -0.2196439749 -0.6332274902
-314.2375000000 80.2252625000 2268.8250000000 0.9901632100 0.0455529850 0.1322941540
141.0063333333 128.5204444444 1991.7233333333 0.9832683663 0.0439418092 -0.1767835885
-204.5551818182 -189.9765454545 2271.3718181818 0.9748940213 -0.2198224864 0.0354925587
-444.5135625000 -140.0778235294 2328.4000000000 0.1819252446 -0.1546093342 -0.9710814380
81.2214000000 -261.9850000000 2283.9700000000 0.9530873375 0.2983549114 -0.0510771375
-430.0000000000 -253.7500000000 2337.5000000000 0.3840324620 -0.1934693377 -0.9028226202
1.9649100000 -160.5610000000 2099.6500000000 0.7013395065 0.7119369095 0.0356192857
-6.5517250000 -221.7240000000 2579.3100000000 -0.9637265673 -0.1298339571 -0.2331828617
176.9696666667 81.2698333333 2590.4800000000 0.0012429283 -0.9998052443 0.0196959036
-66.1111000000 -305.5560000000 2077.7800000000 -0.0220072955 -0.9871453118 -0.1583029133
84.4444250000 -271.2645000000 2292.7200000000 0.9956098397 0.0466971530 -0.0811198068
-264.5914375000 -10.2723756250 2328.4000000000 0.0000000000 0.0000000000 -1.0000000000
28.6347000000 -285.1660000000 2208.1200000000 -0.8430416516 -0.5318669421 -0.0799895586
-49.4983000000 -30.1672250000 2001.3400000000 0.4935686647 -0.0380681794 -0.8688732859
74.2238000000 -258.1950000000 2160.2900000000 0.9980286717 0.0312444426 -0.0544293600
58.0569295858 80.2938656805 1829.9700000000 0.5617816282 0.0179023772 -0.8270918372
0.6837610000 -330.2560000000 2557.2600000000 0.9318727239 -0.3596650535 -0.0474792145
13.7740051383 -160.0315770751 1989.9792094862 -0.7594926436 -0.0195608003 -0.6502217309
-112.6120476190 -187.5534920635 1961.9700000000 -0.6658158018 0.0681399013 -0.7429981642
-292.3765000000 81.7937000000 2683.4100000000 -0.0434038917 0.9978423770 -0.0492614747
61.0666500000 -238.4000000000 1994.6700000000 0.9760867115 -0.1782531617 -0.1244208259
-140.6315000000 -21.0526000000 2099.6500000000 -0.9869745280 0.0806259074 -0.1392147410
-149.4865555556 -238.2728888889 2112.8344444444 -0.9928291916 0.1007728734 -0.0643041540
23.8356000000 -242.4660000000 2049.3200000000 0.9890457337 -0.1290541470 -0.0716488929
8.0803571429 -240.5357142857 2337.5000000000 0.9160860240 -0.3710226426 -0.1520808842
61.5750000000 -202.8670000000 2109.5233333333 0.9964191574 -0.0182327381 -0.0825616737
205.5336250000 -270.0395333333 2365.2200000000 -0.0000000000 0.0000000000 -1.0000000000
-318.7550000000 -126.3812500000 2328.4000000000 0.2526992048 -0.2322261783 -0.9392625373
33.0578500000 -127.9340000000 2472.7300000000 0.6152228983 0.7879862742 0.0240503021
-254.7451250000 -290.1961250000 2346.6700000000 -0.0000000000 0.0000000000 -1.0000000000
-460.0000000000 -339.6875000000 2337.5000000000 0.0000000000 0.0000000000 -1.0000000000
-40.7585627451 -229.4619019608 1961.9700000000 0.8270964914 0.1268599711 -0.5475563365
-154.6852500000 -104.0560000000 2092.3100000000 0.5919223382 -0.8059826239 -0.0044671584
-153.4630000000 -248.8009090909 2328.4000000000 0.9939039766 0.1090982895 0.0158886317
-11.8660000000 89.5694000000 2863.1600000000 0.0118140849 0.9992787877 -0.0360878350
-154.6065000000 -329.5880000000 2241.2000000000 0.3766423208 -0.9165178942 -0.1346681540
205.3543333333 -10.0787393333 2355.9100000000 -0.0000000000 -0.0000000000 -1.0000000000
-334.6785714286 -320.1454081633 2337.5000000000 0.3379128751 -0.1728878013 -0.9251619842
-31.4607000000 -325.3930000000 2241.2000000000 0.5258391200 -0.8365400763 -0.1539282973
265.3968000000 -330.1586666667 2374.6000000000 0.0000000000 0.0000000000 -1.0000000000
-373.4360000000 313.2050000000 2310.4200000000 -0.0140174958 -0.9933285060 0.1144639202
35.7886320000 6.7583487200 1950.5149600000 0.3081387676 -0.9011107727 -0.3050407764
-136.2645000000 -251.0640000000 2121.9900000000 -0.9928939382 0.0315362931 -0.1147479400
-136.1448000000 58.1047920000 1850.2504800000 -0.0723565418 0.9957566582 -0.0568613102
-25.0638160000 -10.2929408000 2060.3304000000 0.9395740282 0.1919854601 -0.2834470474
-42.3944000000 65.9868666667 1990.2500000000 -0.0016215605 -0.9999629811 0.0084502652
91.1020000000 -275.5920000000 2442.4500000000 0.9623276483 0.2710896006 -0.0208788360
-3.1250000000 -30.3125000000 2337.5000000000 0.8299028785 0.0644124418 -0.5541770923
