290.8500000000 325.1820000000 2422.6700000000 0.0473172405 -0.9970001774 0.0612513261
-429.9988258065 306.0545419355 2270.0067741935 0.2485900005 -0.8480420308 -0.4680039804
-420.7279191176 306.3848823529 2273.4519117647 0.6909397588 -0.7133814059 -0.1170009376
-410.0465878378 306.3548108108 2271.3877027027 -0.4593254316 -0.8450982318 -0.2735491299
-400.6007194245 306.3142446043 2272.1892805755 0.7640357715 -0.4844593287 -0.4260850839
-389.9630444444 305.9812222222 2275.0984444444 -0.8703494957 -0.1074137933 -0.4805767705
-379.7748066667 306.1491866667 2271.2098666667 0.1031914255 -0.8532074436 -0.5112617606
-370.9857419355 305.8950107527 2274.3631182796 0.2987467167 -0.8867607522 -0.3527120179
-360.3422929293 307.0132222222 2274.4192929293 -0.1379267209 -0.9584329091 -0.2497650463
-326.8220000000 310.3880000000 2319.3800000000 -0.7328455582 -0.6750365872 -0.0852232002
-338.7428000000 330.7102000000 2442.4500000000 -0.1520119336 -0.9832042114 0.1010042114
-334.9590000000 325.2030000000 2432.5200000000 0.1716606796 0.9414672648 -0.2901241119
-324.7060000000 313.7250000000 2346.6700000000 0.6167916934 0.7697071699 -0.1646781090
-300.9252500000 289.5375000000 2129.5400000000 -0.9454183653 -0.3047725361 -0.1153161556
-293.1083846154 280.2748461538 2059.0869230769 -0.9798265008 -0.1447521760 -0.1377927277
164.4280000000 295.2030000000 2208.1200000000 0.9618784371 -0.2615519108 -0.0798778461
173.4350000000 305.3440000000 2283.9700000000 0.9581639036 -0.2746589301 -0.0805258095
189.8549714286 308.5890857143 2301.5400000000 0.2005437462 -0.9795830139 0.0141182435
272.6530000000 326.5310000000 2442.4500000000 0.0718002081 0.9842287588 -0.1616739943
293.4480000000 345.8625000000 2579.3100000000 0.0053929506 0.9892213140 -0.1463287670
297.8357500000 347.7055000000 2590.4800000000 -0.0150253408 -0.9961150903 0.0867696149
313.8460000000 361.9910000000 2707.6900000000 -0.8321548151 0.5543631002 0.0141391943
307.9650000000 353.9820000000 2647.7900000000 -0.0098057350 0.9898959198 -0.1414564083
298.8035000000 342.9060000000 2557.2600000000 0.0275655619 0.9902678790 -0.1364172554
314.7140000000 352.7755000000 2636.1200000000 -0.0467590912 -0.9906865704 0.1278816116
297.6860000000 331.7357500000 2472.7300000000 0.0597474002 0.9876551946 -0.1448014664
296.8306666667 329.1803333333 2452.4600000000 0.0174181468 0.9860611612 -0.1654690138
281.3692307692 317.0493076923 2352.3561538462 -0.0986315651 -0.9888130986 0.1118949077
-330.5214285714 319.3650000000 2374.6000000000 -0.9523478768 -0.2131283520 -0.2181967623
-300.7090000000 283.1210000000 2121.9900000000 0.9957129549 0.0507476527 0.0773329629
-297.0630000000 279.1610000000 2092.3100000000 0.9943459963 0.0642978418 0.0845093313
-287.7850000000 268.1875000000 2008.0500000000 0.9906397210 0.0538654200 0.1254251159
62.0982696850 249.0269566929 1829.9700000000 0.6425407305 -0.0335128055 -0.7655183221
120.3201444444 259.0415777778 1902.1672222222 0.8960978973 -0.0217442565 -0.4433235227
134.4740000000 263.1580000000 1968.4200000000 0.9927446453 -0.0231509671 -0.1179919567
271.5450000000 326.1790000000 2432.5200000000 -0.0612721890 -0.9964927300 0.0569908589
284.3700000000 335.4620000000 2514.2900000000 0.0213610947 -0.9961614832 0.0848881800
290.3830000000 340.8796666667 2546.3800000000 -0.0543609300 -0.9893882623 0.1347432953
294.7010000000 342.5645000000 2557.2600000000 0.0275655619 0.9902678790 -0.1364172554
287.9323333333 338.6780000000 2524.8900000000 0.0108081695 0.9816702507 -0.1902805887
290.0412857143 330.8172857143 2462.5500000000 -0.0090877271 -0.9924715249 0.1221379776
-330.3820000000 315.1150000000 2283.9700000000 0.6093679711 -0.7849089752 0.1121988256
300.8226666667 341.7873333333 2546.3800000000 -0.0500496697 -0.9894182367 0.1361858413
307.5325000000 347.0130000000 2590.4800000000 -0.0150253408 -0.9961150903 0.0867696149
308.8695000000 347.4780000000 2601.7400000000 0.1005815916 0.9839195502 -0.1475996683
311.9650000000 350.0435714286 2613.1000000000 0.0945743795 0.9829102247 -0.1579340901
306.6093333333 343.1190000000 2568.2400000000 0.0206985617 0.9888143960 -0.1477080223
289.8940000000 327.9676000000 2442.4500000000 -0.0354599358 0.9844316874 -0.1721535531
299.4191666667 332.0606666667 2482.9900000000 0.0607773372 0.9867054426 -0.1507265232
290.3414000000 325.2034000000 2432.5200000000 0.0048830727 -0.9975982483 0.0690933466
305.5460000000 336.4705000000 2514.2900000000 -0.0793462427 -0.9875000147 0.1361906559
297.9423333333 330.7546666667 2462.5500000000 -0.0228331681 -0.9933441802 0.1128981229
-359.3433150685 306.4226849315 2283.9700000000 0.1134883520 0.2103215461 -0.9710227810
-350.1368207547 305.9945943396 2283.9700000000 -0.0153830566 -0.3225840069 -0.9464158283
-339.8854895833 305.9542500000 2283.9700000000 0.2436843918 -0.0566797627 -0.9681969436
-324.2275769231 308.0446923077 2283.9700000000 0.9808101080 -0.1765307879 -0.0827551391
-327.9464545455 311.2952727273 2310.4200000000 -0.8416218184 -0.5363194743 -0.0635148508
-328.7483333333 318.7350000000 2365.2200000000 0.6170203355 0.7852737835 -0.0512931822
-210.6439854651 249.0003401163 1830.8506395349 -0.6323037678 -0.0104311141 -0.7746503322
138.3435555556 269.2340000000 1991.7233333333 0.9910716830 -0.0433486258 -0.1260865412
156.3964000000 289.0040000000 2138.6720000000 0.9421896850 -0.2514294370 -0.2214990648
219.5286781609 309.2993333333 2310.4200000000 -0.3586573039 -0.9261657563 -0.1165415389
253.8520000000 310.9727500000 2328.4000000000 0.5595820705 -0.7974471816 -0.2257119824
267.0948333333 321.9276666667 2403.2100000000 0.0101526842 -0.9919864221 0.1259359414
273.0360000000 322.5910000000 2422.6700000000 0.0020601153 -0.9993612609 0.0356766903
272.0430000000 321.5050000000 2412.9000000000 0.0424566423 -0.9933665566 0.1068658872
267.8885000000 318.7250000000 2384.0600000000 0.0520886127 -0.9919326462 0.1155699003
291.5704285714 331.3341428571 2472.7300000000 -0.0446731362 -0.9899320593 0.1343087072
300.3390000000 339.4350000000 2535.5900000000 -0.0157272056 -0.9915818107 0.1285230236
283.6945000000 321.2850000000 2403.2100000000 -0.0011809034 -0.9930072550 0.1180474350
-326.2500000000 310.6250000000 2337.5000000000 0.6619152589 0.7407210246 -0.1148936625
-324.0465000000 309.7275000000 2328.4000000000 0.6744720052 0.7364226567 -0.0526230452
-324.0310000000 308.2170000000 2319.3800000000 -0.7233441928 -0.6897631438 -0.0316225266
-310.8040000000 300.2250000000 2219.0466666667 -0.9724232685 -0.1967277871 -0.1252643791
124.4730000000 258.9138000000 1911.8200000000 0.9331421981 0.0007785147 -0.3595066508
186.4520000000 320.6450000000 2412.9000000000 0.1008159357 0.9725418355 -0.2097582545
268.9643000000 317.5968000000 2365.2200000000 0.0269166554 0.9880861837 -0.1515294930
286.1790000000 323.5770000000 2432.5200000000 0.0193059611 -0.9965932804 0.0801817514
-322.9011428571 306.4617142857 2301.5400000000 0.9986719737 0.0509409510 0.0077011949
203.0770000000 339.1450000000 2557.2600000000 -0.4435774950 -0.8854234424 0.1387960142
202.5530000000 337.7020000000 2546.3800000000 -0.6231477461 0.7786652979 -0.0732614528
209.6127567568 308.4963243243 2310.4200000000 0.3224577202 -0.9120332585 -0.2534094594
248.3740666667 308.8666222222 2310.4200000000 0.3715398933 -0.8877969552 -0.2716149372
279.5733333333 322.2400000000 2393.6000000000 -0.0039537421 -0.9912563830 0.1318906788
268.6887500000 312.3575000000 2349.7500000000 -0.0473841250 -0.9901972867 0.1313928390
-322.4525000000 303.4480000000 2292.7200000000 0.9326766925 0.0877431517 -0.3498790171
-296.1165000000 278.1700000000 2081.4000000000 0.9958787987 0.0674988843 0.0605749029
200.1690000000 334.1770000000 2524.8900000000 -0.7572285616 0.6520298293 -0.0382362033
196.3330000000 330.0000000000 2493.3300000000 0.2943967152 -0.9551814401 0.0309675732
192.5683333333 325.4646666667 2452.4600000000 -0.9877227391 0.1513116544 0.0388403649
200.3510606061 307.8694848485 2310.4200000000 0.2685972221 -0.9124413984 -0.3087170658
229.8010576923 307.6567403846 2310.4200000000 -0.1892643325 -0.9385949780 -0.2884761338
239.6968333333 307.7706944444 2310.4200000000 0.2260242429 -0.9103116733 -0.3467646162
271.5625000000 310.1562500000 2337.5000000000 0.1534489458 0.9363438863 -0.3157745202
-298.5730000000 278.4560000000 2099.6500000000 0.9935512863 -0.0082459301 0.1130833591
-276.3140289855 258.6475652174 1920.2749275362 -0.9475771714 -0.0268008589 -0.3184010335
127.4135500000 259.3362750000 1920.1095000000 0.9567291307 -0.0130327474 -0.2906880079
158.8490000000 290.3600000000 2152.5200000000 0.9570839318 -0.2772196101 -0.0844963620
193.5270000000 327.9670000000 2482.9900000000 0.1940662847 -0.9766303728 0.0923655354
204.2920000000 340.2575000000 2568.2400000000 -0.0000000000 -0.0000000000 -1.0000000000
199.4940000000 333.5020000000 2524.8900000000 -0.7572285615 0.6520298293 -0.0382362033
198.9920000000 332.1010000000 2514.2900000000 -0.7447427537 0.6647867525 -0.0584534391
196.1830000000 328.6310000000 2482.9900000000 0.1940662847 -0.9766303728 0.0923655354
270.0988461538 308.4107307692 2328.4000000000 0.2504324944 0.7475079361 -0.6152360939
-278.6584000000 256.4647000000 1930.3200000000 -0.9764632065 -0.0285871392 -0.2137811542
-236.2869913043 248.9444608696 1852.6300000000 -0.7278048345 0.0067200009 -0.6857513868
-230.9214146341 249.0430905923 1848.5442857143 -0.7165320894 -0.0116161732 -0.6974574033
129.8387500000 259.3548750000 1930.3200000000 0.9744169957 -0.0176861104 -0.2240507087
200.3390000000 334.9150000000 2535.5900000000 -0.7066413899 0.7065770814 -0.0375069878
189.9426262626 307.2954444444 2310.4200000000 0.0638690317 -0.9694473413 -0.2368387621
-292.8770000000 271.2330000000 2049.3200000000 0.9922389540 0.0473613522 0.1149728682
197.8245000000 329.7070000000 2503.7700000000 0.9829560156 0.1226039443 -0.1369881170
185.3970000000 312.3810000000 2374.6000000000 -0.9947136151 0.0877230060 0.0533806906
-362.6808358209 301.2223731343 2275.2900000000 0.0425978256 -0.5810826195 -0.8127289921
-315.5060000000 294.2320000000 2241.2000000000 -0.9816633836 -0.1430655700 -0.1259731875
-310.1960000000 289.6080000000 2200.0000000000 0.9697632573 0.2125276997 -0.1199633347
-292.4230000000 268.1230000000 2042.3200000000 0.9931665835 0.0248276270 0.1140338824
140.9118571429 269.9161428571 2010.9471428571 0.9917938587 -0.0350725425 -0.1229425015
163.2595000000 292.1480000000 2216.3000000000 0.9849310772 -0.1046136096 -0.1377198816
185.8170000000 312.9880000000 2384.0600000000 -0.9953628275 0.0871609382 0.0406916762
190.2892063492 305.4705555556 2319.3800000000 -0.1492926443 -0.6815472696 -0.7163832953
200.3187083333 305.6157777778 2319.3800000000 0.2877693995 -0.2822489859 -0.9151635278
210.5334852941 307.2457426471 2319.3800000000 0.8328463481 -0.5331471687 -0.1487314929
219.7571416667 306.6821333333 2319.3800000000 -0.7452141548 -0.6190121695 -0.2479511998
229.2813513514 305.6944594595 2319.3800000000 -0.4461652913 -0.4201234727 -0.7902106052
250.4629816514 306.4874311927 2319.3800000000 0.4464892906 -0.3704767917 -0.8144901842
270.1513650794 305.6083174603 2319.3800000000 -0.0961325335 -0.7441779497 -0.6610277718
280.8896065574 308.2272459016 2319.3800000000 -0.1176671777 -0.9644467710 -0.2366365594
-316.3910000000 295.3385000000 2249.6200000000 -0.9709368700 -0.1040654445 -0.2155272086
-285.2980000000 262.1192500000 1981.4600000000 0.9918510165 0.0251263926 0.1249008626
-246.3721704545 249.4137954545 1864.1700000000 -0.7773703106 -0.0086994292 -0.6289830842
-241.5420262172 249.1282808989 1859.6455805244 -0.7603510378 -0.0177419395 -0.6492699923
-110.0899569161 238.8092018141 1786.2942630386 -0.2141892277 -0.0069221394 -0.9767676585
-100.0597333333 238.8059523810 1786.2700000000 -0.0010382376 -0.0002849667 -0.9999994204
-90.0298523810 238.8059523810 1786.2700000000 -0.0000000000 -0.0000000000 -1.0000000000
-80.0000000000 238.8059523810 1786.2700000000 0.0000000000 -0.0000000000 -1.0000000000
-49.9104476190 238.8059523810 1786.2700000000 0.0261852047 -0.0003895886 -0.9996570328
96.9470408759 249.3340072993 1864.1700000000 0.7842390910 -0.0144661013 -0.6202900774
131.4992222222 260.6051666667 1940.0644444444 0.9866696507 -0.0297991945 -0.1599844007
143.7446666667 270.1370000000 2049.3200000000 0.9966750179 -0.0238909107 -0.0778982226
184.5420000000 312.3510000000 2384.0600000000 -0.9962847014 0.0820254368 0.0262415984
-299.6822500000 279.2275000000 2110.7650000000 0.9934528632 0.0393692697 0.1072449029
181.4170000000 325.9840000000 2355.9100000000 0.9878900864 0.0622837668 -0.1421052763
-129.8203333333 239.0419523810 1791.6200000000 -0.2312498574 -0.0161527935 -0.9727602946
-30.1138800000 239.0303701149 1791.6077011494 0.1956034515 0.0014300623 -0.9806820304
-20.1197619048 239.0419523810 1791.6200000000 0.2090431027 -0.0355528597 -0.9772599324
-12.8155808081 238.9500303030 1791.6200000000 0.2335379528 -0.0121472550 -0.9722718081
162.6566666667 290.8730000000 2208.1200000000 -0.9962949747 0.0569865997 0.0644115735
169.0230000000 294.1350000000 2249.6200000000 0.9662391987 -0.2270357261 -0.1218055413
280.9597187500 306.9779895833 2328.4000000000 0.2666131343 0.9235904935 -0.2754959835
-142.4278288288 239.1104279279 1797.0000000000 -0.3290848613 -0.0213340628 -0.9440593264
171.4720000000 298.5665000000 2258.1100000000 0.9645001727 -0.2383900463 -0.1136204328
-316.9810000000 295.8490000000 2258.1100000000 -0.9762711549 -0.1348716407 -0.1694233533
-291.3396000000 267.1396000000 2033.9900000000 0.9910619485 -0.0262298739 0.1307983482
-255.5310877193 248.8742105263 1875.8600000000 -0.8469832891 -0.0086655937 -0.5315488834
-251.2938102767 249.0223636364 1872.3856916996 -0.7985944582 -0.0143896351 -0.6016974570
0.0139201746 239.0334862843 1797.0539650873 0.3018945150 -0.0021847044 -0.9533388322
101.7638069307 249.0537326733 1870.8702970297 0.8096179164 -0.0088772852 -0.5868901287
105.8114615385 249.0603589744 1875.8600000000 0.8509193025 -0.0096915653 -0.5252070204
132.7816666667 258.8570000000 1954.4983333333 0.9921089008 -0.0096838396 -0.1250046084
275.7032857143 303.1674285714 2319.3800000000 -0.0586659598 -0.8258186606 -0.5608759622
-303.6344000000 280.0574000000 2140.2040000000 0.9903582749 -0.0279679061 0.1356771301
-166.9660909091 239.0391151515 1802.4100000000 -0.4380476385 -0.0103886995 -0.8988917295
10.1021310000 239.0089045455 1801.7952272727 0.3633251889 -0.0096136211 -0.9316127873
133.5082000000 258.6230000000 1961.9700000000 0.9937037937 -0.0201379085 -0.1102144958
156.0140000000 277.2955000000 2129.5400000000 0.9926450958 -0.0199475069 -0.1194060747
-311.2423333333 288.7086666667 2208.1200000000 0.9891660971 0.0970543508 0.1101402988
-308.5710000000 284.2490000000 2191.9400000000 0.9914359766 -0.0550038086 0.1184452838
-258.0686372549 248.9480588235 1881.7600000000 -0.8561206169 -0.0011797447 -0.5167747068
-172.0586198347 239.0192190083 1807.8500000000 -0.4250523896 0.0010147133 -0.9051681813
108.6496078431 248.8000588235 1881.7600000000 0.8584199111 0.0018218562 -0.5129443801
135.0820000000 254.4260000000 1961.9700000000 0.9918846871 -0.0331059607 -0.1227548898
240.3519729730 305.5771216216 2319.3800000000 0.5053088526 -0.6183914955 -0.6018761682
-447.4524444444 299.0113750000 2275.2900000000 0.2073899967 -0.5622690629 -0.8005266330
-430.1140625000 299.0113750000 2275.2900000000 0.1902269037 -0.1861329583 -0.9639337357
-420.0760588235 299.0113750000 2275.2900000000 0.1632273400 0.0042056161 -0.9865795195
-410.0380000000 299.0113750000 2275.2900000000 0.2079315018 -0.2556970564 -0.9441310851
-400.0292925926 299.0429185185 2275.2900000000 0.2693094124 -0.2986933392 -0.9155625208
-389.9548149606 299.0472992126 2275.2900000000 -0.0350112603 -0.1022792391 -0.9941394112
-319.5608709677 297.8509032258 2272.5093548387 -0.9244613381 -0.0882308070 -0.3709266223
-295.9170000000 267.9580000000 2070.5900000000 0.9932117711 -0.0208711608 0.1144323922
147.0562500000 267.9540000000 2059.9050000000 0.9937834698 -0.0131453518 -0.1105514129
-384.7910000000 293.8400000000 2275.2900000000 0.0568775346 -0.3748934454 -0.9253214850
-302.0640000000 279.3833333333 2129.5400000000 0.9939124300 -0.0156787629 0.1090516295
-265.3160000000 248.9874375000 1893.6700000000 -0.8929102067 0.0122513922 -0.4500680684
-180.0637108434 239.0731084337 1811.2436385542 -0.5033279045 -0.0228118593 -0.8637943271
30.1768650990 239.0028019802 1810.2508910891 0.4901515555 -0.0058436864 -0.8716176363
146.8490000000 264.6580000000 2049.3200000000 0.9956855853 -0.0395943825 -0.0839196053
-397.3536666667 295.3690000000 2283.9700000000 0.0887835989 0.0913276333 -0.9918551991
-388.0578888889 295.0976666667 2283.9700000000 0.0206871463 -0.1096731700 -0.9937524026
-379.4983928571 296.3577946429 2283.9700000000 0.1031812849 -0.1880550479 -0.9767235645
-359.4470230415 298.4008525346 2283.9700000000 0.0019685055 -0.0960914465 -0.9953705636
-339.8473125000 298.9313125000 2283.9700000000 0.1698146315 -0.1081066755 -0.9795284262
-323.5299512195 298.8717317073 2283.9700000000 -0.9399236568 0.0942180965 -0.3281256919
-296.5473333333 269.5716666667 2080.1933333333 0.9946481035 -0.0130316298 0.1024954964
-262.4244134078 248.9774525140 1890.3014525140 -0.8905943525 0.0095023124 -0.4546992471
112.7776000000 248.9911187500 1889.8641250000 0.8726309930 -0.0100696647 -0.4882763070
116.1891710526 248.7209473684 1893.6700000000 0.8757347100 -0.0088203913 -0.4827120451
140.2005000000 259.2640000000 2001.3400000000 0.9907225209 -0.0228355067 -0.1339680048
176.1835000000 295.5725000000 2283.9700000000 0.9785100952 -0.1957658677 -0.0647589276
-313.3284444444 288.6884444444 2223.6244444444 0.9946842326 0.0138685853 0.1020340127
-302.0640000000 273.8790000000 2129.5400000000 0.9919282645 -0.0296248252 0.1232910694
-293.9765000000 269.1857500000 2059.9050000000 0.9933671712 -0.0126308839 0.1142896496
-287.6250000000 260.9841428571 2001.3400000000 0.9922505011 0.0163822242 0.1231688506
269.4860307692 301.4861076923 2319.3800000000 0.1977399127 -0.3945390726 -0.8973504594
-295.1720000000 267.2186666667 2063.4500000000 0.9933181945 -0.0038063013 0.1153450323
-205.6841521739 239.2576739130 1824.3900000000 -0.5642836169 -0.0069134588 -0.8255520600
50.1076303030 238.9738611111 1821.8112121212 0.5440084059 -0.0212020192 -0.8388118554
135.6070000000 252.8525000000 1961.9700000000 0.9917418949 -0.0330361092 -0.1239218685
157.5305000000 277.6921250000 2141.9275000000 0.9911801570 -0.0269987063 -0.1297419220
177.2082857143 296.7050000000 2292.7200000000 0.9434640167 -0.3067974914 -0.1255027829
-305.0360000000 275.6830000000 2152.5200000000 0.9921752598 -0.0214361861 0.1229989585
-293.1510000000 262.4660000000 2049.3200000000 0.9927628646 -0.0143255617 0.1192336907
-268.7437421053 249.0213052632 1902.5139473684 -0.9163927014 -0.0108099239 -0.4001344305
120.3325549451 249.1107637363 1902.0401648352 0.8898873323 -0.0173965077 -0.4558485465
148.6503333333 267.9583333333 2070.5900000000 0.9813885044 -0.0589790566 -0.1827514004
159.4240000000 276.2590000000 2152.5200000000 0.9873145505 -0.0917009118 -0.1296183677
-298.1820000000 267.6925000000 2092.3100000000 0.9919850844 -0.0111985718 0.1258577942
-292.4230000000 261.5700000000 2042.3200000000 0.9936470309 -0.0132318945 0.1117608828
-288.7900000000 257.7576666667 2012.5566666667 0.9931490374 -0.0336883074 0.1118931962
-286.3080000000 258.0430000000 1990.6920000000 0.9935075799 -0.0225153012 0.1115156937
-273.0840441176 249.2764411765 1911.8200000000 -0.9354237227 -0.0332844884 -0.3519582387
124.4289137931 248.9456896552 1911.8200000000 0.9321145983 -0.0065537158 -0.3621041625
125.4950000000 248.9091428571 1911.8200000000 0.9402867861 -0.0077068670 -0.3402959949
155.4610000000 271.2060000000 2121.9900000000 0.9953715298 -0.0613831775 -0.0739433779
178.5643333333 297.9486666667 2301.5400000000 0.9375050585 -0.2886563277 -0.1943239301
-298.9470000000 267.7890000000 2099.6500000000 0.9927786505 -0.0114940778 0.1194086985
-217.3862918919 239.0714378378 1835.5800000000 -0.6623316959 -0.0180312657 -0.7489937237
-210.7706982249 238.9885118343 1830.5177218935 -0.6457887823 0.0054670128 -0.7634965359
68.5447771626 238.9774117647 1835.4247058824 0.6618482196 -0.0268106323 -0.7491582771
138.0480000000 259.5860000000 1991.7233333333 0.9914916935 -0.0504495220 -0.1199961140
-390.7241685393 292.0288539326 2275.2900000000 0.1432584598 -0.3443468010 -0.9278482065
-315.5060000000 286.6413333333 2241.2000000000 0.9902549233 -0.0383598290 0.1338794624
-308.2390000000 280.3386666667 2181.2933333333 0.9934347339 -0.0255845790 0.1115027298
-289.7300000000 257.5675000000 2021.6200000000 0.9922054877 0.0101273650 0.1242002680
-274.6796250000 247.3290416667 1917.9500000000 -0.9468707187 -0.0152077868 -0.3212546736
-225.9213750000 239.0427083333 1841.2300000000 -0.6724796746 -0.0098756233 -0.7400497006
-222.4418349515 238.9866747573 1841.2300000000 -0.6564126348 -0.0224320422 -0.7540684693
73.5852310000 238.9316600000 1841.2300000000 0.6595297782 -0.0378880538 -0.7507229629
76.2860877193 239.4644649123 1841.2300000000 0.6703914459 -0.0243552111 -0.7416078027
151.6086666667 268.1583333333 2092.3100000000 0.9925461630 -0.0832524257 -0.0890008307
180.6157179487 299.5663076923 2310.4200000000 0.9235405879 -0.2978524848 -0.2415712726
127.4673857143 248.4340142857 1920.0654285714 0.9644655555 -0.0052984647 -0.2641554816
141.1580000000 258.1861111111 2010.3033333333 0.9909297048 -0.0497385724 -0.1248374727
157.6895000000 278.7000000000 2160.2900000000 0.9922318248 -0.0992623039 -0.0749866718
190.0775625000 299.2248750000 2319.3800000000 0.0082725154 -0.4704470093 -0.8823894701
209.9224375000 299.2248750000 2319.3800000000 0.0887151039 -0.0863500847 -0.9923070559
219.8450000000 299.2248750000 2319.3800000000 -0.1366739006 0.0506751708 -0.9893190951
259.7970085837 299.5589055794 2319.3800000000 0.1386870688 -0.3434451315 -0.9288763850
-309.5975000000 279.2672500000 2191.9400000000 0.9926697414 -0.0400698867 0.1140227554
154.2860000000 270.8570000000 2137.1400000000 0.9876136269 -0.0780022643 -0.1361431990
-316.6913750000 289.9247500000 2249.6200000000 0.9887662736 -0.0848617520 0.1230436478
-278.0561333333 249.2214666667 1930.3200000000 -0.9766612078 -0.0243196171 -0.2134044082
-236.4048359375 239.0673046875 1852.6300000000 -0.7275068621 -0.0005358141 -0.6861001957
87.2272770186 238.8200310559 1852.6300000000 0.7331834377 -0.0077886850 -0.6799863109
129.8824705882 249.1080588235 1930.3200000000 0.9760616806 -0.0144718489 -0.2170118920
142.2972500000 257.8377500000 2021.6200000000 0.9941060610 0.0015875821 -0.1084002729
162.6570000000 279.2620000000 2208.1200000000 -0.9974891967 -0.0016395136 0.0707998201
263.8756000000 295.5953500000 2328.4000000000 0.1946855279 0.0131928412 -0.9807769849
280.2527440000 299.0394080000 2328.4000000000 0.0095103120 0.0290127194 -0.9995337994
290.1166875000 299.1440000000 2328.4000000000 -0.0794877643 -0.1817659838 -0.9801238812
-400.9219230769 291.5378384615 2275.2900000000 0.1307884488 -0.3376528612 -0.9321399718
151.2982500000 269.6140000000 2099.6500000000 0.9947903968 -0.0069477967 -0.1017044473
-317.8870000000 288.1005000000 2258.1100000000 0.9887975223 -0.0452246707 0.1422469298
131.4158500000 249.4503000000 1939.4005000000 0.9887672605 -0.0201037046 -0.1481051845
164.4610000000 280.4460000000 2224.5400000000 0.9866483567 -0.0294367712 -0.1601826982
-314.6270000000 281.9402500000 2232.8400000000 0.9926191599 -0.0123583399 0.1206419284
-283.9566666667 251.6086666667 1972.7533333333 0.9921159225 -0.0090421554 0.1249969427
-246.3056024096 239.3303855422 1864.1700000000 -0.7780924411 -0.0125671806 -0.6280240593
-110.0902571429 229.0197833333 1786.3082142857 -0.2309564149 -0.0069917241 -0.9729389756
-100.0597333333 229.0149500000 1786.2700000000 -0.0054753759 -0.0017420951 -0.9999834925
-90.0298523810 229.0149500000 1786.2700000000 0.0000000000 -0.0000000000 -1.0000000000
-80.0000000000 229.0149500000 1786.2700000000 0.0000000000 -0.0000000000 -1.0000000000
-69.9701476190 229.0149500000 1786.2700000000 0.0000000000 -0.0000000000 -1.0000000000
-59.9403000000 229.0149500000 1786.2700000000 0.0105974375 0.0000206864 -0.9999438454
-49.9104476190 229.0149500000 1786.2700000000 0.0349781787 -0.0034149573 -0.9993822417
92.2098148515 239.0380990099 1859.1911881188 0.7585065503 -0.0135495255 -0.6515245379
97.0097825175 239.2871818182 1864.1700000000 0.7790257088 -0.0077960282 -0.6269435118
133.1105000000 249.4482142857 1951.4650000000 0.9892295648 -0.0440096529 -0.1395994937
134.7370000000 248.6840000000 1968.4200000000 0.9917522342 -0.0437359947 -0.1204768390
-310.5040000000 278.1511428571 2200.0000000000 0.9951411653 -0.0130773444 0.0975860859
-129.8203333333 228.9820000000 1791.6200000000 -0.2213170542 -0.0107039422 -0.9751431624
-119.9424682353 228.9465741176 1790.8647058824 -0.1942281592 0.0018929230 -0.9809545550
-20.1306493182 228.9765568182 1791.6200000000 0.2094070066 0.0088888418 -0.9777881642
-13.1800413333 228.8893933333 1791.6200000000 0.2085418796 0.0036272036 -0.9780067116
133.5081428571 247.6815714286 1961.9700000000 0.9913285709 -0.0534779611 -0.1200323799
171.7740000000 282.5660000000 2258.1100000000 0.9866445783 -0.1218274135 -0.1081228813
-447.4524444444 288.9733529412 2275.2900000000 -0.0692033623 -0.1916310653 -0.9790242231
-420.0802847222 288.9733541667 2275.2900000000 0.0838954012 -0.3334930489 -0.9390122193
-410.3024530612 289.4252857143 2275.2900000000 0.1179120377 -0.3768640968 -0.9187329340
-320.1932105263 289.0740263158 2272.5678947368 -0.9306766508 -0.0256432449 -0.3649430033
-311.7345000000 279.8525000000 2208.1200000000 0.9914544681 -0.0096612087 0.1300949603
210.5882307692 305.4975384615 2200.0000000000 -0.0231814452 -0.9987873656 0.0434329254
-255.5313793103 239.0833793103 1875.8600000000 -0.8460424271 -0.0063494012 -0.5330777585
-251.2259534884 239.0277829457 1872.3167441860 -0.7941058579 -0.0081520833 -0.6077247979
-142.8310370370 228.6578888889 1797.0000000000 -0.3268273031 -0.0045657789 -0.9450730488
-8.2455066781 229.2846815068 1797.0000000000 0.3083748588 0.0283925816 -0.9508411054
101.8586517413 239.0140945274 1870.9912437811 0.8043363514 -0.0094992549 -0.5940983066
105.7911578947 238.8847105263 1875.8600000000 0.8506114631 -0.0020215261 -0.5257908827
144.4370000000 255.0170000000 2042.3200000000 0.9950129514 -0.0156140361 -0.0985161323
-412.6235000000 283.4980000000 2275.2900000000 0.1579414565 -0.3711687194 -0.9150345775
-408.2256122449 285.7018979592 2283.9700000000 0.1783704892 -0.2869953543 -0.9411788540
-399.6071891892 287.7194648649 2283.9700000000 0.1036875802 -0.3671099334 -0.9243804317
-389.5150917874 288.3947681159 2283.9700000000 0.0673637533 -0.3263562183 -0.9428434353
-380.1526875000 289.1603125000 2283.9700000000 0.0108800182 -0.3671605360 -0.9300939555
-339.8473125000 289.1603125000 2283.9700000000 0.0000000000 -0.0000000000 -1.0000000000
-330.0763125000 289.1603125000 2283.9700000000 -0.2664274110 0.1091442454 -0.9576554539
-323.4604367816 289.0865977011 2283.9700000000 -0.4147099882 0.1002964831 -0.9044093327
-305.0360000000 271.0790000000 2152.5200000000 0.9913691124 0.0689550825 0.1115010295
-301.5605000000 267.8015000000 2121.9900000000 0.9934138792 -0.0176680273 0.1132108891
-282.4920000000 247.8165000000 1961.9700000000 0.9911024270 0.0458979580 0.1249374108
108.6182222222 239.1106363636 1881.7600000000 0.8596152573 -0.0008249305 -0.5109412186
249.2520945946 292.3191351351 2319.3800000000 0.1398477792 -0.4561457494 -0.8788479129
-313.3442000000 279.2300000000 2222.8920000000 0.9918689145 0.0331248995 0.1228771644
-166.9266273292 229.0114037267 1802.4100000000 -0.4450343799 0.0250860884 -0.8951620461
16.9777163399 228.8494640523 1802.4100000000 0.4167633667 0.0231813513 -0.9087193852
135.0820000000 243.9340000000 1961.9700000000 0.9909502128 -0.0466227367 -0.1258729370
-439.8479375000 288.9733529412 2275.2900000000 0.0480268972 -0.2138640403 -0.9756821149
171.4290000000 280.0000000000 2249.6200000000 0.9845645224 -0.1456334322 -0.0970752528
-265.3160000000 238.2280000000 1893.6700000000 -0.8951326046 -0.0054294151 -0.4457669140
-171.9922046332 229.0771969112 1807.8500000000 -0.4315813498 0.0096094154 -0.9020228366
22.0521112782 229.1692894737 1807.8500000000 0.4078954462 0.0105846907 -0.9129672882
135.8688571429 248.0967142857 1971.2057142857 0.9918413514 -0.0454008530 -0.1191196719
165.2940000000 273.2350000000 2200.0000000000 0.9961468506 -0.0353913896 -0.0802427660
-289.7300000000 251.5313333333 2021.6200000000 -0.9891797457 -0.0331926266 -0.1429044446
-186.7563767123 229.2270479452 1813.3300000000 -0.4751211315 -0.0334260911 -0.8792852818
-179.9266674817 229.0610855746 1810.8244743276 -0.5085175311 -0.0144767247 -0.8609299304
115.9285918367 239.7933061224 1893.6700000000 0.8677704305 -0.0143546798 -0.4967579119
136.6890000000 249.0066666667 1981.4600000000 0.9919677283 -0.0514641353 -0.1155485564
161.7480000000 271.6242500000 2179.9700000000 0.9891401073 -0.0817515050 -0.1221414732
166.5307500000 278.5902500000 2220.4200000000 0.9867343835 -0.0232135237 -0.1606747920
-304.2290000000 269.2472500000 2144.8000000000 0.9915616887 0.0551580311 0.1173158522
-294.6210000000 258.8506666667 2063.4500000000 0.9932833844 0.0093531411 0.1153283875
137.9833333333 248.3647777778 1989.5133333333 0.9915891999 -0.0639462882 -0.1125243566
-420.3275466667 282.2732533333 2275.2900000000 0.1585038394 -0.3242928846 -0.9325827887
-315.6258000000 278.8914000000 2241.2000000000 0.9916553885 -0.0011962337 0.1289114408
-305.8480000000 270.3250000000 2160.2900000000 0.9952924287 0.0454235358 0.0856135727
135.4460000000 243.4320000000 1974.9200000000 0.9916988874 -0.0621493268 -0.1125645502
145.4300000000 253.4710000000 2056.3600000000 0.9960599700 -0.0360467982 -0.0810257031
167.6117500000 278.5075000000 2232.8400000000 0.9632094895 -0.2070171969 -0.1713807443
165.6090000000 272.4725000000 2208.1200000000 -0.9987916772 0.0003135980 0.0491435376
239.8074383562 290.2126849315 2319.3800000000 0.1442554656 -0.4026697655 -0.9039067544
-295.3630000000 258.9158333333 2070.5900000000 0.9948151461 0.0702377038 0.0735492355
-268.5699890710 239.0712786885 1902.8868306011 -0.9192045915 -0.0050060111 -0.3937484715
-205.7265217391 229.0668478261 1824.3900000000 -0.5661972124 -0.0701055816 -0.8212830962
-200.0598968059 229.0347592138 1822.3718181818 -0.5650070104 -0.0473621626 -0.8237256241
49.9948223377 228.9392000000 1821.5068831169 0.5507242190 -0.0186220981 -0.8344795097
55.6640000000 229.0437619048 1824.3900000000 0.5616392439 0.0059468485 -0.8273608613
120.0260189573 238.8510142180 1902.5472985782 0.8906244249 -0.0047996443 -0.4547143028
176.6153333333 283.2820000000 2301.5400000000 0.9840955304 -0.1117708458 -0.1380697830
179.7781935484 288.4742580645 2310.4200000000 0.9604613537 -0.0511321642 -0.2736777117
-316.7916666667 278.4960000000 2249.6200000000 0.9947168399 0.0629777218 0.0810691983
143.6735000000 251.4285000000 2035.3700000000 0.9891842495 -0.0691430387 -0.1293590381
167.8900000000 277.8526666667 2241.2000000000 0.9838594119 -0.1063463043 -0.1439135895
175.1350000000 283.5520000000 2310.4200000000 0.9592249583 -0.0879145777 -0.2686233541
-272.7306911765 239.0302647059 1911.8200000000 -0.9369872430 -0.0249360854 -0.3484725212
60.6947213855 228.9693493976 1829.9868975903 0.6389960118 -0.0175826106 -0.7690090693
124.4218000000 238.7391000000 1911.8200000000 0.9429884812 -0.0051779567 -0.3327850855
140.5452222222 249.4725555556 2011.8055555556 0.9859271535 -0.1085030841 -0.1271799070
158.8406000000 268.6376000000 2168.1200000000 0.9819814974 -0.1336788817 -0.1335750549
187.9520000000 294.2970000000 2403.2100000000 -0.9948531522 0.0832720752 0.0577318547
155.1940000000 306.9960000000 2114.4900000000 0.5935062999 -0.7847878550 -0.1784889202
182.6251779661 289.3652881356 2319.3800000000 0.8722957849 -0.4147074225 -0.2590710663
209.9224375000 288.9921764706 2319.3800000000 0.0224464899 -0.1248586608 -0.9919205966
219.8450000000 288.9921764706 2319.3800000000 0.1134300094 -0.2181497680 -0.9693009397
-274.6543636364 239.1608484848 1917.9500000000 -0.9466626716 -0.0277834068 -0.3210262739
-217.2056187500 228.8312312500 1835.5800000000 -0.6429840942 -0.0425264504 -0.7646979506
-210.7489371429 228.9975685714 1830.7393714286 -0.6377444565 -0.0602957536 -0.7678843860
129.4007142857 239.7419285714 1930.3200000000 0.9781550962 -0.0342883225 -0.2050290680
135.8056666667 242.8256666667 1981.4600000000 0.9934491203 -0.0496004920 -0.1029496801
143.5270000000 251.0126666667 2042.3200000000 0.9921700947 -0.0844707634 -0.0919956155
171.9540000000 280.1530000000 2292.7200000000 -0.9953238043 0.0773163035 0.0579026237
-273.6301222222 269.1033111111 1911.8200000000 -0.9272632044 -0.0004245172 -0.3744098951
240.2442911392 285.7272531646 2328.4000000000 0.1809095423 -0.3210308622 -0.9296294547
250.8037575758 288.2678787879 2328.4000000000 0.1125781783 -0.3767653583 -0.9194422323
260.3845601660 288.9077510373 2328.4000000000 0.1517186592 -0.2348744833 -0.9601121943
299.1440000000 289.1828750000 2328.4000000000 -0.0000000000 -0.0000000000 -1.0000000000
-317.7863333333 280.3521666667 2258.1100000000 -0.9858344463 -0.0617326958 -0.1559471666
-306.6670000000 265.5075000000 2168.1200000000 0.9898478631 0.1044115933 0.0964335370
-225.8286250000 229.2747142857 1841.2300000000 -0.6664911973 0.0007810618 -0.7455124908
-222.2435067873 229.2394253394 1841.2300000000 -0.6519292296 -0.0100594731 -0.7582130878
206.0610000000 315.8440000000 2590.4800000000 0.9923616624 0.0248018894 -0.1208436893
-450.0760000000 277.8630000000 2283.9700000000 0.1353553687 -0.3422252326 -0.9298176242
-278.1570714286 238.8571428571 1930.3200000000 -0.9779048914 -0.0430775854 -0.2045637923
-276.3216034483 239.0032241379 1922.0987931034 -0.9698941962 -0.0332032210 -0.2412525530
127.3510188679 238.8130566038 1920.1618867925 0.9660068445 -0.0038864479 -0.2584872760
144.3300000000 250.1720000000 2056.3600000000 0.9933933399 -0.0772529943 -0.0848625192
162.9520000000 270.1110000000 2208.1200000000 -0.9981288765 0.0431121104 0.0433600265
199.8315000000 307.5105000000 2524.8900000000 0.9850084003 0.0006422467 -0.1725051850
-309.7440000000 270.3786666667 2191.9400000000 0.9946064456 0.0177521433 0.1021904095
150.7370000000 259.7426666667 2099.6500000000 0.9851637227 -0.1078536613 -0.1334916746
163.8660000000 270.6320000000 2224.5400000000 0.9886654205 -0.1032585697 -0.1089878620
181.1528333333 287.1223333333 2349.7500000000 -0.9994381151 -0.0246945105 0.0226635227
-290.8005714286 250.5082857143 2030.4414285714 0.9930958738 0.0706056922 0.0936772210
-230.6789174917 228.9564950495 1848.4391089109 -0.7135642869 -0.0091358635 -0.7005301881
208.6960000000 315.1300000000 2601.7400000000 0.9923926170 0.0046353498 -0.1230260429
194.3483333333 299.8080000000 2462.5500000000 0.9877530333 -0.0379746922 -0.1513336316
-430.8064049080 280.4376257669 2275.2900000000 0.1621794805 -0.3239807546 -0.9320591648
-316.3905000000 272.7820000000 2249.6200000000 0.9948231374 0.0709201770 0.0727822349
-285.3863333333 241.0593333333 1981.4600000000 0.9914003005 0.0846466776 0.0998017239
130.7425555556 238.9935000000 1938.6666666667 0.9880666690 -0.0399613720 -0.1487526345
137.7930000000 242.4080000000 2001.3400000000 0.9895296646 -0.0711114845 -0.1255953805
145.8820000000 250.5190000000 2070.5900000000 0.9890030701 -0.0746644626 -0.1276641899
201.1300000000 307.5710000000 2535.5900000000 0.9869892373 -0.0023267597 -0.1607694984
192.6535000000 296.8165000000 2442.4500000000 -0.9988584669 -0.0433146524 0.0201396141
-447.4439370629 278.9502657343 2275.2900000000 -0.0675556149 -0.3715781865 -0.9259405436
-320.1720937500 278.8036875000 2273.1350000000 -0.9250148493 -0.1693190270 -0.3401155623
-310.5880000000 268.4313333333 2200.0000000000 0.9944734453 0.0207210098 0.1029233029
-292.7856666667 248.5843333333 2049.3200000000 0.9907232673 0.0722291382 0.1151102050
-279.6934210526 239.7122631579 1941.2047368421 -0.9887746726 -0.0507481337 -0.1405321090
-305.0360000000 258.9930000000 2152.5200000000 0.9930612859 0.0806120891 0.0856211041
96.8595274809 228.9828778626 1864.1700000000 0.7802852674 -0.0089518349 -0.6253597094
132.6158750000 240.5530000000 1953.1712500000 0.9898975491 -0.0576162609 -0.1295500242
195.7020000000 299.0633333333 2472.7300000000 0.9908848924 -0.0364328607 -0.1296910816
-410.0763125000 279.0839411765 2283.9700000000 0.0799796284 -0.3744714667 -0.9237826474
-400.0000000000 279.0839411765 2283.9700000000 0.0665721148 -0.2027305285 -0.9769690304
-339.8473125000 279.0839411765 2283.9700000000 0.0491324832 -0.0527188635 -0.9973999802
-330.0763125000 279.0839411765 2283.9700000000 -0.2960106622 -0.2024015596 -0.9334941331
-323.5282888889 279.1314444444 2283.9700000000 -0.4244128720 -0.1649380888 -0.8903196847
-7.5930489177 239.0899653680 1797.0000000000 0.3155767833 -0.0369956379 -0.9481785784
-110.0946371882 219.2566167800 1786.5368934240 -0.2265249759 -0.0229630735 -0.9737346315
-100.0597333333 219.2238571429 1786.2700000000 -0.0050714846 -0.0002086811 -0.9999871182
-80.0000000000 219.2238571429 1786.2700000000 0.0000000000 0.0000000000 -1.0000000000
-69.9701476190 219.2238571429 1786.2700000000 -0.0000000000 -0.0000000000 -1.0000000000
181.9920000000 286.5340000000 2384.0600000000 -0.9985578758 -0.0468943544 0.0261359555
-294.6210000000 247.1720000000 2063.4500000000 0.9961297007 0.0469932778 0.0742782014
-282.6042857143 240.1498571429 1961.9700000000 -0.9882075260 -0.0679762449 -0.1372046491
133.4034000000 239.2130000000 1961.9700000000 0.9925563610 -0.0492012216 -0.1114051615
203.2340000000 306.2127500000 2546.3800000000 -0.9988257549 -0.0060305832 0.0480701928
-255.3815000000 228.0041666667 1875.8600000000 -0.8447136985 -0.0533898303 -0.5325488650
-137.1489850746 218.9435472637 1791.6200000000 -0.2289640094 -0.0002790679 -0.9734348486
-129.8203333333 218.9220952381 1791.6200000000 -0.2245728357 0.0008757438 -0.9744569126
-120.0867872861 219.0060024450 1791.3060635697 -0.2004286750 0.0251017016 -0.9793866707
-13.2610472973 219.4885000000 1791.6200000000 0.2133244826 -0.0086306879 -0.9769432821
101.7647699531 229.1152488263 1871.2380281690 0.8034546353 -0.0143278997 -0.5951935486
133.7718333333 237.8070000000 1968.4200000000 0.9914586521 -0.0627979986 -0.1143072729
206.1084285714 310.4432857143 2579.3100000000 0.9891986562 0.0644721983 -0.1316410053
227.1646363636 281.2967575758 2319.3800000000 0.1505241758 -0.3511992038 -0.9241220654
219.8860526316 304.3382105263 2182.2684210526 -0.0368641240 -0.9986451919 0.0367262451
-313.3375714286 269.9182857143 2222.1857142857 0.9900980766 0.0566463121 0.1284406245
270.1945625000 289.1828750000 2328.4000000000 0.0485109652 -0.2232764479 -0.9735472840
-257.9528592593 229.6539037037 1881.7600000000 -0.8445238290 -0.0552721302 -0.5326579521
-142.3543625000 219.0991458333 1797.0000000000 -0.3254679597 -0.0087510106 -0.9455125737
-441.0620000000 361.4160000000 2647.7900000000 -0.0000000000 -0.0000000000 -1.0000000000
194.6670000000 299.7776666667 2493.3300000000 0.9936372715 0.0385536166 -0.1058233967
219.7938901099 280.1703846154 2319.3800000000 0.2113400146 -0.3767943957 -0.9018655008
220.3317222222 306.9323333333 2232.8400000000 -0.0374002762 -0.9976126792 0.0580530927
-314.6270000000 269.7515000000 2232.8400000000 0.9898865125 0.0950207311 0.1053363799
-310.5880000000 262.6470000000 2200.0000000000 0.9937511421 0.0368093805 0.1053742710
-287.4110000000 241.2308000000 2001.3400000000 0.9911316601 0.0726675245 0.1112540479
-306.6670000000 261.1014000000 2168.1200000000 -0.9876639317 -0.0684049900 -0.1408570743
-290.7270000000 242.2280000000 2031.2300000000 0.9939815565 0.0273729197 0.1060725629
165.6930000000 266.0670000000 2241.2000000000 0.9865104923 -0.0965610656 -0.1321855104
202.3930000000 303.5900000000 2557.2600000000 -0.9962733497 -0.0340707622 0.0792375914
-315.5060000000 267.8650000000 2241.2000000000 0.9968346103 0.0685220181 0.0403173989
-284.5030000000 234.7020000000 1981.4600000000 0.9964688757 0.0164312316 0.0823395065
-276.2370810811 230.7080000000 1921.9521621622 -0.9744403085 -0.0176806934 -0.2239497225
-265.3476875000 229.7784375000 1893.6700000000 -0.8930856277 -0.0001463232 -0.4498866971
-262.5964642857 228.8434345238 1890.6139285714 -0.8807850753 -0.0203304601 -0.4730796164
-205.5611200000 220.7024400000 1824.3900000000 -0.5684671946 -0.0855916108 -0.8182414832
116.0252500000 228.6581333333 1893.6700000000 0.8801667053 0.0059857497 -0.4746269501
148.2520000000 248.6710000000 2092.3100000000 0.9889376483 -0.0890955073 -0.1185930792
203.9485000000 307.9830000000 2568.2400000000 0.9890771368 0.0098032001 -0.1470724811
196.6564285714 297.6170000000 2482.9900000000 -0.9963681922 0.0480185173 0.0703181878
-308.3210000000 258.1020000000 2183.9400000000 -0.9831880702 -0.0926073221 -0.1573693190
-305.7518333333 258.1950000000 2160.2900000000 0.9931759309 0.0554640484 0.1025929315
-286.2475000000 239.1731000000 1992.6810000000 0.9920862328 0.0811265846 0.0958299747
-186.6927449664 219.1157315436 1813.3300000000 -0.4858329231 -0.0357356071 -0.8733208673
30.1311744076 219.0642322275 1810.4081990521 0.4898227697 -0.0159417835 -0.8716762666
209.8347250996 278.8425139442 2319.3800000000 0.1221869780 -0.4367707224 -0.8912360397
-442.7233396226 271.8358490566 2275.2900000000 0.1405962475 -0.3412358873 -0.9294034454
-191.8766201550 219.1032325581 1818.8400000000 -0.5528150823 -0.0562351345 -0.8314042906
139.0382000000 239.9744000000 2012.7820000000 0.9876473166 -0.0749944250 -0.1375813004
184.0960000000 283.3730000000 2403.2100000000 0.9873424827 0.0447350077 -0.1521630736
197.6472500000 298.6555000000 2514.2900000000 0.9946518312 -0.0045764873 -0.1031832857
204.8280000000 305.3450000000 2579.3100000000 0.9939703537 -0.0011952033 -0.1096426355
207.0728461538 309.2906923077 2590.4800000000 0.9923616624 0.0248018894 -0.1208436893
182.1010000000 278.8215714286 2328.4000000000 0.9699733923 0.1842286903 -0.1587810064
211.5175000000 275.0197500000 2328.4000000000 0.1529022834 -0.5076491622 -0.8478875042
220.0485529412 275.9735647059 2328.4000000000 0.0832493006 -0.4100979534 -0.9082341232
230.6787611111 278.1461833333 2328.4000000000 0.1303512540 -0.3466999388 -0.9288744280
240.0000000000 279.2218125000 2328.4000000000 0.2147014145 -0.3027558630 -0.9285699705
190.6566153846 304.3788461538 2191.9400000000 0.0376008441 -0.9980902149 0.0490112183
250.2723750000 279.2218125000 2328.4000000000 0.0079351990 -0.2530947716 -0.9674089462
280.1556250000 279.2218125000 2328.4000000000 -0.0000000000 -0.0000000000 -1.0000000000
299.1440000000 279.2218125000 2328.4000000000 0.1731174975 -0.1398173575 -0.9749263760
-309.2743333333 260.5660000000 2208.1200000000 0.9936097803 0.0392188132 0.1058370882
-283.7330000000 234.6670000000 1994.6700000000 0.9948511158 0.0043004330 0.1012559312
-268.6814748603 229.0395418994 1902.8232960894 -0.9216126940 -0.0083009157 -0.3880220833
120.0598397790 228.9931767956 1902.2537569061 0.8907619230 -0.0023536546 -0.4544641424
147.1178571429 247.6350000000 2081.9171428571 0.9912695777 -0.0955173286 -0.0908903965
197.0210000000 298.3096000000 2503.7700000000 -0.9983599107 0.0189779768 0.0540122677
208.0000000000 308.1740000000 2601.7400000000 0.9922256935 0.0241307674 -0.1220896360
206.2070000000 303.4480000000 2579.3100000000 0.9952825465 0.0093889887 -0.0965634486
208.2170000000 273.4363333333 2319.3800000000 0.2830272450 -0.3968487897 -0.8731589871
-320.0699545455 271.3990000000 2273.3309090909 -0.8977257667 -0.1598331365 -0.4105384468
-317.6673636364 268.7341818182 2258.1100000000 0.9918717828 0.0831590014 0.0963065260
219.8218421053 310.0889473684 2301.5400000000 -0.2993684791 -0.9539877106 0.0169104053
-312.4530000000 265.0570000000 2258.1100000000 0.9962670851 0.0474694571 0.0721009414
-293.4260000000 244.5915000000 2081.4000000000 0.9976858379 -0.0082388149 0.0674914125
-272.6909193548 229.1496935484 1911.8200000000 -0.9404079776 -0.0075874289 -0.3399636255
-200.0644164649 219.0592736077 1822.7774092010 -0.5925393004 -0.0835978287 -0.8011919748
50.1399035714 219.0426045918 1822.1530102041 0.5547705937 -0.0100351780 -0.8319428367
239.9999333333 307.0875333333 2249.6200000000 -0.0125109222 -0.9981077870 0.0602023452
55.6826059701 218.9588507463 1824.3900000000 0.5624224221 -0.0086404553 -0.8268049114
124.3371406250 229.3449843750 1911.8200000000 0.9333516912 -0.0050783491 -0.3589273338
125.4950000000 226.4535714286 1911.8200000000 0.9431459218 0.0083761542 -0.3322733968
137.0670000000 238.6134000000 1994.6700000000 0.9942236246 -0.0437451306 -0.0980089167
204.2920000000 301.6880000000 2568.2400000000 0.9927820367 0.0231109331 -0.1176848012
182.5000000000 278.7500000000 2337.5000000000 -0.9897171737 -0.1018309393 -0.1004508626
-325.6543333333 275.8123333333 2349.7500000000 0.9915756446 -0.0766826617 0.1043911417
-333.0080000000 284.8780000000 2432.5200000000 0.9200123499 -0.3796412907 0.0972099090
-334.4260000000 287.2130000000 2452.4600000000 0.9844732409 0.1686829474 -0.0485644032
-204.5260000000 214.8828333333 1829.9700000000 -0.5808392151 -0.0936537948 -0.8086128696
239.7669444444 306.5830555556 2241.2000000000 -0.0185919754 -0.9980827995 0.0590344283
60.7301170886 218.9861329114 1830.1475316456 0.6365821606 -0.0116063878 -0.7711215498
152.8830000000 249.3950000000 2129.5400000000 0.9931276378 -0.0600953657 -0.1004292887
199.4940000000 295.6960000000 2524.8900000000 0.9821460794 0.0317044856 -0.1854289736
203.0978000000 300.6638000000 2546.3800000000 -0.9972107081 -0.0077372340 0.0742356977
186.0320000000 281.4287500000 2374.6000000000 0.9947992358 -0.0022645910 -0.1018300153
-328.8890000000 277.4600000000 2374.6000000000 0.9726949372 0.2292450839 0.0362111962
-335.7380000000 286.5570000000 2452.4600000000 0.9844732409 0.1686829474 -0.0485644032
-286.0486666667 236.6876666667 2010.3033333333 -0.9882522212 -0.0004067722 -0.1528312201
-277.4366666667 229.9870666667 1930.3200000000 -0.9791780216 -0.0093955079 -0.2027859127
-274.5648064516 229.4760322581 1918.3480645161 -0.9475292203 -0.0119104388 -0.3194472071
-217.2648109756 218.9256890244 1835.5800000000 -0.6084905100 -0.0497239730 -0.7920017839
-210.4646521739 218.9184782609 1831.6926358696 -0.6092085413 -0.0792051345 -0.7890446755
68.4154080000 219.1616727273 1835.5800000000 0.6589236749 -0.0093646657 -0.7521515098
196.6666666667 292.4443333333 2493.3300000000 0.9928642554 -0.0369477370 -0.1133818114
-335.3470000000 284.7350000000 2442.4500000000 0.9950258242 -0.0815587698 0.0571994429
-341.6035000000 294.3460000000 2524.8900000000 0.8038316311 -0.5694724784 0.1719180189
-333.3880000000 285.3880000000 2442.4500000000 0.9950258242 -0.0815587698 0.0571994429
-288.4683333333 239.2793333333 2021.6200000000 -0.9866333782 -0.0382341167 -0.1584068477
-255.4283200000 221.6526000000 1875.8600000000 -0.8460969361 -0.0620784406 -0.5294017775
126.9212592593 229.1159814815 1919.7781481481 0.9693678493 -0.0155601332 -0.2451200826
129.1180000000 227.0106666667 1930.3200000000 0.9813430301 -0.0133405066 -0.1918016896
140.5410000000 235.6760000000 2021.6200000000 0.9905797898 -0.0505316206 -0.1272722881
-444.2620000000 336.0655000000 2452.4600000000 -0.1402989225 0.9689543437 -0.2035772391
173.5380000000 268.3080000000 2301.5400000000 0.9917163781 -0.0681729771 -0.1088626223
186.4543333333 278.9906666667 2384.0600000000 -0.9985885394 -0.0130975685 0.0514721540
182.4505000000 276.0475000000 2365.2200000000 -0.9964406416 -0.0442321844 0.0717604457
-344.1700000000 296.1700000000 2546.3800000000 0.9991638792 -0.0003133971 0.0408833018
-302.6086666667 252.7536666667 2168.1200000000 -0.9895190845 -0.0446887155 -0.1373131463
-225.9632439024 219.0649024390 1841.2300000000 -0.6595335135 0.0014319636 -0.7516737950
-222.3318705357 219.2395401786 1841.2300000000 -0.6413385220 -0.0004290044 -0.7672579202
73.5149663636 219.0590000000 1841.2300000000 0.6593463967 0.0036267090 -0.7518305501
76.0520519231 219.0769038462 1841.2300000000 0.6706678658 0.0094780812 -0.7416972292
146.4360000000 240.8300000000 2070.5900000000 0.9940290787 -0.0384054298 -0.1021333135
183.4026470588 278.6942941176 2348.8441176471 -0.9998239366 -0.0186159126 0.0023545040
-335.3470000000 283.4290000000 2442.4500000000 0.9950258242 -0.0815587698 0.0571994429
