270.7690000000 -49.5546500000 2422.6700000000 0.9895042973 0.0824753278 -0.1186552401
163.0610000000 173.7162083333 1603.0387500000 -0.0068626079 -0.9995029135 -0.0307706098
-384.7910000000 -324.8670000000 2275.2900000000 0.8812881143 -0.4720000081 0.0233934168
-464.4975000000 -60.2870750000 2863.1600000000 -0.9343717277 -0.3169277752 -0.1628074319
95.3263571429 109.0254285714 1981.4600000000 -0.9790608331 -0.1638296865 -0.1208292968
-414.8275000000 -349.6550000000 2579.3100000000 0.9085033417 -0.4163804337 0.0353413718
-249.8360000000 -27.2131000000 2452.4600000000 -0.9921526291 -0.0304782290 -0.1212610331
132.0374290123 -11.2454623457 1992.2349074074 0.4785803662 -0.0120371032 -0.8779612413
362.0656428571 -341.0329230769 2809.3900000000 0.0000000000 0.0000000000 -1.0000000000
-187.9070000000 -311.0698461538 2783.2600000000 -0.0000000000 -0.0000000000 -1.0000000000
-292.1890000000 -64.5494000000 2568.2400000000 0.9966069938 -0.0000098077 0.0823073498
5.9375000000 -277.8125000000 2337.5000000000 0.1439307608 0.9837909876 0.1069543306
-217.7356666667 160.5031666667 2822.6400000000 0.4684886293 -0.8805818234 0.0713726594
142.7985000000 -1.9112625000 2042.3200000000 0.9488073317 0.2961172052 -0.1099056326
-214.0640000000 -190.6850000000 2732.4200000000 0.8302062021 0.5570764532 0.0205788044
305.6410000000 -213.3330000000 2557.2600000000 0.9852935796 -0.0902821085 -0.1450713719
-327.7082222222 -230.4414444444 2011.0544444444 0.9604688810 -0.2654662239 0.0838284711
-358.3387507418 -260.8211454006 1922.1975964392 0.5639363657 -0.4461127268 -0.6949526677
-259.1450000000 11.6239000000 2557.2600000000 -0.8845333620 -0.2788915539 -0.3739254374
-339.2110000000 -139.9280000000 2144.8000000000 0.9794898206 -0.1391826480 0.1456979133
82.5002736626 -142.1020946502 2021.6200000000 0.2522291674 -0.6282933218 -0.7359537682
-146.5780162602 -130.2950894309 2092.3100000000 -0.6893106918 -0.5393766115 -0.4836565321
-361.9855000000 -297.0215000000 2121.9900000000 0.8832664192 -0.4673041161 0.0383052963
-284.0975000000 -55.0243750000 2919.0200000000 0.9940533768 0.0816390639 0.0720621073
-383.2640000000 -279.1630000000 2503.7700000000 -0.8902482450 0.3169316947 -0.3271274418
-31.2684333333 119.3910000000 1822.5400000000 0.0833776533 -0.9952198662 0.0508486474
142.2950000000 -270.1640000000 2452.4600000000 0.3919659384 -0.9067595038 -0.1554023983
172.3814965035 182.6891748252 1545.0532167832 0.0607647840 -0.9379738022 -0.3413396950
-147.7209230769 -341.2092857143 2783.2600000000 -0.0000000000 0.0000000000 -1.0000000000
30.2304250000 -331.7970000000 2757.6000000000 -0.0383900169 -0.9859694470 -0.1624513964
174.5030000000 -218.0120000000 2099.6500000000 0.3298115069 0.9435772074 0.0297728658
-137.7777692308 -401.1110714286 2770.3700000000 -0.0000000000 -0.0000000000 -1.0000000000
81.5238000000 139.6830000000 1899.6800000000 -0.3823861495 -0.9239581168 0.0090681404
-411.2750833333 -320.6451666667 2757.6000000000 0.8646847840 -0.4474883480 -0.2281981656
-300.5130000000 -206.1540000000 1917.9500000000 0.6170181287 0.7765256477 0.1276579309
72.9762333333 135.5472222222 1862.2433333333 -0.0941635592 -0.9950191363 -0.0327130314
133.0412307692 -181.7751538462 1938.9892307692 -0.8779995493 -0.4785418476 -0.0107000699
122.1755056948 188.6844282460 1520.5607289294 0.1897631658 -0.7689499406 -0.6104964617
149.4916000000 -238.3616000000 2271.8420000000 0.4607816615 -0.8718308893 -0.1661058726
-229.8530000000 -187.9413333333 1751.4200000000 0.6829349988 -0.7284091412 -0.0549537118
101.2450000000 -288.1330000000 2482.9900000000 0.2618975555 -0.9562474768 -0.1303857109
-368.0095549296 -271.0042028169 1922.4862535211 0.4277014036 -0.5002809977 -0.7528548550
-68.0930307692 -391.0697857143 2783.2600000000 0.2689615836 0.2104190185 -0.9398848351
-416.0640000000 -26.3454000000 2403.2100000000 0.9727799069 0.2198032936 -0.0733877708
321.8779230769 -361.3146153846 2809.3900000000 0.1859655305 0.3643694260 -0.9124975304
-409.4915000000 -342.3730000000 2535.5900000000 0.9189750238 -0.3905853471 0.0541109264
-127.9856077348 -311.0862928177 2783.2600000000 0.0478832292 0.2546796542 -0.9658392569
-340.5723926702 -71.8542523560 1939.3692146597 0.8801768044 0.3519246167 -0.3184931038
93.3774500000 139.0730000000 1981.4600000000 -0.6771927116 -0.7358054302 -0.0006326127
-380.6450000000 -299.3550000000 2412.9000000000 0.9325149734 -0.3594356637 0.0349546564
-436.4707500000 -172.7450000000 2933.3300000000 -0.9824069740 0.0760379098 -0.1705719016
-404.7863333333 -330.2566666667 2557.2600000000 0.9074799437 -0.4187869423 0.0331307812
213.2098333333 -288.6418333333 2770.3700000000 0.4794844293 -0.8579894287 -0.1842520618
-289.6800000000 10.2283000000 2732.4200000000 -0.7163702136 0.6465838581 -0.2621889232
12.0364661044 -92.6492409639 1981.4600000000 -0.0032424461 -0.4924114898 -0.8703564852
-340.4563393939 -141.1650000000 1905.7300000000 0.7152350216 0.1793333576 -0.6754838346
-355.6200000000 -128.4670000000 2183.9400000000 -0.8545117987 -0.4746801409 -0.2109226154
-148.7425000000 106.8260000000 1791.6200000000 0.0889034368 -0.9943299310 0.0583452413
-189.1971000000 67.3342100000 1741.5620000000 0.9387849978 -0.3404683071 0.0525743268
-392.6610000000 -306.0550000000 2744.9500000000 -0.2961578726 -0.9365380911 -0.1875817646
-348.4330000000 -281.1480000000 1981.4600000000 0.8841006372 -0.4665547230 0.0263202150
-214.0170000000 -166.1540000000 2557.2600000000 0.8282502697 0.5597290128 0.0265503848
-411.0570000000 -357.0730000000 2432.5200000000 0.0000000000 0.0000000000 -1.0000000000
81.9964000000 163.4220000000 1600.0000000000 -0.0110847100 -0.9999359999 -0.0022639100
-398.5075000000 -22.3881000000 2232.8400000000 0.5140681617 0.8574526686 -0.0225576201
-390.6980000000 -331.7830000000 2319.3800000000 0.8896658578 -0.4557384032 0.0282341879
-459.9575714286 -101.7875142857 2947.7800000000 0.9289280357 0.3422068718 0.1413759575
-233.5106666667 -51.6096333333 2275.2900000000 -0.9871860263 -0.1193061624 -0.1059706994
-167.7777857143 -391.1111538462 2770.3700000000 -0.0000000000 0.0000000000 -1.0000000000
-4.3010766667 -284.5160000000 2412.9000000000 -0.1443223008 -0.9813852546 -0.1267045998
-224.6890000000 -196.7460000000 2863.1600000000 0.8212935001 0.5652739543 0.0770865958
-224.8220000000 -110.6720000000 2365.2200000000 0.9192920132 0.3813343942 0.0973975061
289.9615000000 64.3678000000 2292.7200000000 0.9711669108 0.1636384123 -0.1733704166
-163.7033333333 -97.8529857143 2085.0200000000 -0.7606396597 -0.3850245947 -0.5226694649
-257.9000000000 -224.0790588235 2796.2600000000 0.5218142556 0.8274418060 -0.2074847955
-269.2610000000 -244.0470000000 2328.4000000000 -0.8090339837 0.5866133972 -0.0367251320
91.9626153846 -361.1214615385 2796.2600000000 0.0293734618 0.1340601063 -0.9905377770
-388.4260000000 -285.2770000000 2546.3800000000 0.8979475124 -0.4335887401 0.0754391774
90.0958500000 108.8817500000 1911.8200000000 0.9925772043 0.1019649037 -0.0662846284
-413.4450000000 -352.2690000000 2514.2900000000 0.8888364274 -0.4549107687 0.0550090706
315.5553333333 -187.3686666667 2624.5600000000 0.9898063857 0.0246640274 -0.1402676175
202.7635000000 -229.8180000000 2176.0000000000 -0.0832505416 0.9911901332 0.1030119763
243.5348333333 -287.8760833333 2783.2600000000 -0.3727648290 -0.9175455753 -0.1384070065
206.6140000000 -149.7267500000 1921.0350000000 0.9865637566 -0.0348031206 -0.1596267425
-341.1100000000 -99.4817333333 2033.0700000000 0.9622556980 0.2415279708 0.1254121645
-225.3508888889 -21.2225333333 1742.3522222222 0.9869050947 -0.1380081298 0.0834990432
133.4032000000 -180.0394000000 1961.9700000000 -0.9193900661 -0.3930053706 0.0163916132
-185.8750000000 256.8550000000 1775.6700000000 -0.0000000000 -0.0000000000 -1.0000000000
150.4980000000 -241.8392500000 2292.7200000000 0.4701662309 -0.8639731281 -0.1802613363
336.1430000000 -132.0180000000 2683.4100000000 0.9239719558 -0.3565026835 -0.1384978752
364.5263333333 -82.9358000000 2744.9500000000 0.9485097220 -0.2655110367 -0.1727228897
359.5496250000 -60.9909875000 2695.5000000000 -0.9849614867 0.1421997604 0.0981330620
-251.0340000000 -219.0340000000 2063.4500000000 0.7758066588 -0.6309632052 0.0030760018
-229.6087636364 69.7973996364 1643.9600000000 0.3434710749 -0.3312426422 -0.8788093836
-226.0150000000 59.0977750000 2249.6200000000 0.9345942728 -0.3442898389 0.0894318295
-156.6820000000 -258.0645000000 2757.6000000000 -0.6977061281 -0.7083762837 -0.1068138548
172.0127296037 158.6321351981 1772.9848251748 0.2971615090 -0.7084744837 -0.6401241626
-395.9535000000 -339.6110000000 2328.4000000000 0.8866730777 -0.4584910034 0.0599737703
102.9260342105 -31.7166467105 1981.4600000000 0.4402163416 -0.1000073017 -0.8923049435
-409.5852857143 -309.4666428571 2757.6000000000 0.9167945571 -0.3910030113 -0.0812673690
-406.4000000000 -16.5333000000 1994.6700000000 0.9864633333 -0.0195402765 0.1628136040
-56.9549136364 -159.1313636364 2042.3200000000 -0.3345871252 -0.6930642274 -0.6385244180
-348.1007500000 -280.0331666667 1990.8025000000 0.8823102588 -0.4700744472 0.0236351705
230.7322352941 -91.3638647059 2112.2988235294 0.9592019240 0.0020908097 -0.2827141623
-349.6512857143 -280.8511071429 1951.5787500000 0.8072007756 -0.4932897720 -0.3241791306
381.9718461538 -361.3146153846 2809.3900000000 -0.0000000000 0.0000000000 -1.0000000000
-345.9425766871 -252.2287730061 1930.3200000000 0.7159478202 -0.3935644316 -0.5766504634
-428.0183076923 -391.1520000000 2757.6000000000 0.3509026175 0.0469740286 -0.9352330157
-147.7209230769 -361.3022857143 2783.2600000000 0.2822874936 0.2260777364 -0.9323103711
190.8435000000 -238.7150000000 2403.2100000000 -0.2008563232 -0.9644568798 -0.1716964310
-114.6868000000 -227.9084000000 2283.9700000000 0.5208743516 0.8472409580 0.1042720911
-248.5950000000 46.2810000000 2472.7300000000 -0.8673903471 0.3309037190 -0.3716674785
253.6940000000 -284.6850000000 2695.5000000000 0.2692970081 0.9605620023 0.0692803083
-64.0000000000 -308.1820000000 2720.0000000000 -0.3602766178 -0.9245775601 -0.1239237430
177.7832363636 -62.2797654545 1852.6300000000 0.4146681145 0.0760601287 -0.9067884051
-332.6320000000 -133.0530000000 2099.6500000000 -0.9549702601 0.1149112594 -0.2735456174
-194.8072191781 -79.9181000000 2129.5400000000 -0.8623235653 -0.3128310447 -0.3981642955
-174.1490909091 -40.6857579545 2070.5900000000 -0.8113118534 -0.1713050632 -0.5589522806
-440.5430000000 -388.0540000000 2707.6900000000 0.8632575197 -0.5038642400 0.0301211262
-204.5220000000 145.3910000000 2601.7400000000 0.8638718690 -0.5029025415 -0.0285381793
-373.0970000000 -297.3450000000 2647.7900000000 -0.4572829453 -0.8711066052 -0.1790686748
128.0000000000 -141.4195000000 1930.3200000000 0.9944485400 -0.0496121850 -0.0927940321
-296.0785000000 -207.4510000000 2933.3300000000 0.7257742321 0.6831260594 0.0811822085
-325.7868461538 -149.8116153846 1981.4600000000 0.9848391926 -0.1263470836 0.1188620177
-27.9069692308 -401.1162307692 2783.2600000000 -0.0000000000 0.0000000000 -1.0000000000
-415.4955135135 -331.8118918919 2770.3700000000 -0.7334500435 -0.4721244572 -0.4890291716
-367.7934703297 59.0485417582 1822.5481318681 0.1628776185 -0.5621607420 -0.8108305504
-17.6116277778 -337.1548055556 2796.2600000000 -0.4638851063 -0.5767852827 -0.6724056408
1.0000000000 -294.6667500000 2493.3300000000 0.1045935054 0.9898430751 0.0962854362
-183.1880000000 114.2030000000 2168.1200000000 0.8560960559 -0.5156251503 0.0350748836
152.1495000000 -361.1214615385 2796.2600000000 0.0000000000 0.0000000000 -1.0000000000
51.8750000000 -278.0000000000 2337.5000000000 0.1139066938 -0.9859629012 -0.1220754786
-458.4620000000 -87.6923000000 2876.9200000000 0.9267977736 0.3431493769 0.1526250046
-176.0675975610 -140.6005365854 2160.2900000000 -0.7876410019 -0.5307858972 -0.3128705537
21.9409000000 -301.0970000000 2524.8900000000 -0.0927909441 -0.9866707235 -0.1336814272
-239.9267142857 -33.2037714286 1923.2385714286 0.9969221763 -0.0423125104 0.0659986814
-275.5556666667 10.3703966667 2770.3700000000 -0.9644461605 -0.1560529540 -0.2132863780
-418.0645714286 -391.1520000000 2757.6000000000 -0.0000000000 -0.0000000000 -1.0000000000
-68.2472728000 -192.7474160000 2092.3100000000 -0.3856418170 -0.7722163175 -0.5049379645
-253.7270000000 35.7806000000 2524.8900000000 0.9739628081 -0.2258890820 0.0192502234
166.7560000000 -293.6890000000 2659.5600000000 0.3403845433 -0.9296536027 -0.1410054667
-127.1083283582 -189.9882089552 2152.5200000000 -0.5979412134 -0.7227042882 -0.3466479729
-397.7880000000 -391.1520000000 2757.6000000000 -0.0000000000 -0.0000000000 -1.0000000000
105.7627500000 -135.4237500000 2028.4700000000 0.4127088526 -0.5557179422 -0.7216986710
-229.3970000000 -189.1344000000 1786.2700000000 0.7228479026 -0.6907336994 -0.0194387815
94.4000000000 139.5810000000 1994.6700000000 0.7225611241 0.6849797003 -0.0933179088
-138.2782000000 118.6750000000 1981.4600000000 -0.0552692701 0.9949619302 -0.0836424842
-382.3670000000 -299.7550000000 2442.4500000000 0.9328871417 -0.3481210312 0.0923760174
-77.7674461538 -361.3022857143 2783.2600000000 -0.0000000000 -0.0000000000 -1.0000000000
-387.8340000000 -391.1520000000 2757.6000000000 0.0000000000 0.0000000000 -1.0000000000
-377.8802307692 -391.1520000000 2757.6000000000 0.0000000000 0.0000000000 -1.0000000000
-320.2936000000 -308.1102000000 2744.9500000000 0.5159352686 -0.8514868576 -0.0937066167
-218.5190000000 146.6670000000 2770.3700000000 -0.9583054953 0.2663114310 -0.1035799181
-265.4187955556 -131.2368577778 1676.1900000000 -0.3599762389 0.1007983029 -0.9275003017
215.0570000000 -240.9130000000 2275.2900000000 0.1384710688 -0.9825789858 -0.1239528126
-338.0769606742 -391.2472752809 2757.6000000000 0.1576131301 0.0322983980 -0.9869726008
-47.6882466216 -400.5832567568 2783.2600000000 0.0573114514 0.4230249640 -0.9043037528
115.6997500000 32.8728500000 1921.0350000000 0.9222157705 0.3801739149 -0.0706106733
-357.9723076923 -391.1520000000 2757.6000000000 -0.0000000000 -0.0000000000 -1.0000000000
-181.8180000000 -197.0250000000 2472.7300000000 0.7632103925 0.6419029519 0.0739628091
149.6775000000 -316.3130000000 2757.6000000000 0.3567056338 -0.9184347686 -0.1709931771
71.7293528358 108.4959164179 1994.6700000000 0.1977877480 0.4169630614 -0.8871424982
-301.1320000000 -159.2450000000 2822.6400000000 0.9696770903 0.2278417896 0.0883994318
-400.6400000000 -343.0400000000 2393.6000000000 0.8615839745 -0.5065312426 0.0331535077
263.6015000000 -199.2340000000 2292.7200000000 0.9492826619 -0.2731915091 -0.1556561185
-348.0183571429 -391.1520000000 2757.6000000000 0.1288009702 0.2323057646 -0.9640769377
152.3987029478 -61.3150836735 1851.5145351474 -0.2748815102 0.0998219713 -0.9562822436
152.4472215569 -390.6832694611 2796.2600000000 0.1515417141 0.5464161814 -0.8236895444
-412.5930000000 -136.2960000000 2770.3700000000 -0.9421387412 0.2810120286 -0.1827753599
-59.2126000000 -264.9870000000 2355.9100000000 0.3508719925 0.9313469380 0.0973741541
292.2310000000 -166.6120000000 2472.7300000000 0.9769173250 0.1631618028 -0.1378795350
-370.9143661972 -278.1033943662 1924.1200000000 0.3185014691 -0.5171606086 -0.7944191080
-389.4650000000 -310.1230000000 2462.5500000000 0.9269240340 -0.3742192404 0.0277812048
251.1753866667 -21.9710573333 2129.5400000000 0.8972114765 -0.0719235207 -0.4357046862
220.3867500000 -162.8225000000 2009.7400000000 0.9847803932 -0.0652165319 -0.1611036346
-374.1940000000 -158.7100000000 2412.9000000000 -0.9765070244 -0.0887445629 -0.1963630156
-197.1930000000 -197.1930000000 2624.5600000000 0.7562551198 0.6526918013 0.0455149023
127.3960000000 -245.7360000000 2258.1100000000 0.3422442285 -0.9273701421 -0.1511737664
179.7772500000 -198.1385000000 1921.0350000000 0.3196134600 -0.9374184588 -0.1381805678
-27.9365000000 -276.8250000000 2374.6000000000 -0.2562451680 -0.9589803876 -0.1212230595
-237.5089331742 -171.6370238663 1681.7692362769 0.4272021096 -0.4811012902 -0.7655324331
-97.8604461538 -351.2558461538 2783.2600000000 -0.0000000000 0.0000000000 -1.0000000000
195.3457500000 -102.3902500000 1881.7600000000 0.9762556536 0.1383626151 -0.1666753898
141.6015454545 -70.5117636364 1981.4600000000 0.9931218083 -0.0896850040 -0.0752706713
-257.1007304965 -121.3697044917 1676.1900000000 -0.1614635269 0.1750759621 -0.9712249672
-262.4836666667 -144.3136666667 2933.3300000000 0.8966212743 0.4316676858 0.0986574862
205.1120000000 -140.5750000000 1911.8200000000 0.9851013746 0.0418810631 -0.1667970572
-257.8530000000 -51.2994318182 1690.4000000000 -0.3821347713 0.0723654202 -0.9212688329
-94.7040333333 -317.2583333333 2796.2600000000 0.3296488543 0.4274276852 -0.8418059199
-27.5472287212 158.3712243187 1650.5927044025 0.5167669977 -0.3460369600 -0.7830774498
-188.5167500000 -261.6268750000 2863.1600000000 0.2843876097 0.9406392150 -0.1852607748
139.1840000000 -112.8028000000 2001.3400000000 -0.9940108940 0.1083995614 0.0138519940
81.9522459064 8.9533097661 1969.7314035088 0.2418918580 0.0092382986 -0.9702592349
182.0127500000 -190.3145000000 1881.7600000000 0.4939720102 -0.8515189541 -0.1758042204
-418.2455000000 -5.2631600000 2624.5600000000 -0.3192607102 0.9421687478 -0.1019345353
-287.6972391304 -388.9694021739 2770.3700000000 -0.1447516160 0.7057690191 -0.6934962591
-222.7160000000 -143.2100000000 1846.9100000000 0.9925680447 0.1018617429 0.0665797410
-78.9237500000 -296.3230000000 2683.4100000000 -0.3913270418 -0.9121187282 -0.1220760913
12.8274073684 -333.0037368421 2783.2600000000 -0.0675387050 -0.9500324268 -0.3047571351
-87.8139500000 -341.2092857143 2783.2600000000 0.0000000000 -0.0000000000 -1.0000000000
80.7111000000 -315.0220000000 2659.5600000000 -0.1605314675 0.9816295069 0.1031172105
-254.0285000000 -227.8670000000 2836.0200000000 0.4709758586 0.8794274888 0.0692028363
-88.0141875000 -200.7637692308 2121.9900000000 -0.4612728140 -0.7814443764 -0.4202048043
-303.3960000000 -155.4720000000 2822.6400000000 0.9713506237 0.2182463977 0.0940557050
-252.4270000000 -155.3400000000 2904.8500000000 0.8862995173 0.4545690960 0.0885443540
-37.4603200000 -273.5240000000 2374.6000000000 -0.2570476958 -0.9585250805 -0.1231103251
-305.0042500000 -149.4710000000 1831.3725000000 0.9918625572 -0.0522691949 0.1160887543
-221.1210000000 -168.4960000000 2647.7900000000 0.8602068942 0.5065083166 0.0591051979
-124.0686666667 104.5686666667 1722.8466666667 0.0755090774 -0.9964549868 0.0370922959
349.2910000000 -384.9585882353 2796.2600000000 0.0874323762 0.5854692261 -0.8059661065
132.0267241379 -80.8269931034 1889.7586206897 -0.9905803714 0.1294778995 0.0445645741
-197.8947251462 -360.9746140351 2770.3700000000 0.0552734795 0.3691015530 -0.9277439766
-302.7750000000 -164.5930000000 2863.1600000000 0.9811884220 0.1807781116 0.0677388724
-401.3010000000 -339.5120000000 2432.5200000000 0.8983871398 -0.4368481510 0.0454339083
-176.0963846154 116.0689743590 2129.5400000000 -0.8615436845 0.3907814362 -0.3240869464
-147.7209230769 -351.2558461538 2783.2600000000 0.0631738583 0.1516099833 -0.9864195236
-352.2063333333 -41.9986777778 1990.9866666667 0.9454962159 0.3117982790 0.0939081406
190.6041489362 99.2071184397 1802.4100000000 0.4606970511 -0.1410260111 -0.8762818561
332.0187142857 -310.9859230769 2809.3900000000 0.0000000000 0.0000000000 -1.0000000000
-252.8000000000 -217.0670000000 1994.6700000000 0.5877399040 -0.8051034919 -0.0798133610
362.2641538462 -261.1320769231 2822.6400000000 -0.0000000000 0.0000000000 -1.0000000000
260.7870000000 -232.4410000000 2355.9100000000 0.8130579857 -0.5567605020 -0.1701600873
98.5580525773 -21.1384402062 1974.9200000000 0.3519844338 -0.1107851420 -0.9294264956
126.5550000000 -64.9275333333 2001.3400000000 0.4165623070 -0.2729578177 -0.8671619653
93.8758666667 119.6090000000 1970.5866666667 0.9970788786 0.0478690386 -0.0595169304
-419.9140000000 -360.1715000000 2568.2400000000 0.8882601816 -0.4583384810 0.0303263348
-434.3350000000 -15.1073000000 2568.2400000000 0.5399756851 -0.8193012055 -0.1927998811
129.5520000000 -240.0000000000 2232.8400000000 0.3618971978 -0.9188320205 -0.1574107247
128.1428000000 -174.4532000000 1903.3100000000 -0.9105706012 -0.4130854806 0.0148850910
171.9667786667 -81.2602805333 1848.5116000000 0.4118521416 0.2055637540 -0.8877619932
-407.7420000000 -381.1981538462 2757.6000000000 0.0000000000 -0.0000000000 -1.0000000000
-332.5633333333 85.5927000000 1818.8400000000 -0.8898099941 -0.3734447741 -0.2622540277
301.0093000000 -296.8220000000 2796.2600000000 0.3220582291 -0.8779572483 -0.3542168365
292.2647605634 -304.1936619718 2809.3900000000 0.0182148632 -0.4584332424 -0.8885421661
304.7790000000 -261.5930000000 2647.7900000000 0.7920330097 -0.5832289532 -0.1803543725
-368.1720000000 -262.1503333333 2412.9000000000 0.6682435788 -0.7437443600 0.0171710902
-331.2260068493 -210.1965136986 1923.4438356164 0.8078992519 -0.2036902798 -0.5530000621
-324.2720769231 -181.3000000000 1950.1700000000 0.9985873700 -0.0275108195 0.0454578853
-366.3260000000 -299.6802857143 2171.4971428571 0.8933330202 -0.4476044065 0.0400800489
-448.3495000000 -120.7767500000 2904.8500000000 0.9020078184 0.4047542122 0.1501862955
-23.0830000000 -275.7310000000 2365.2200000000 -0.1947001040 -0.9715546046 -0.1348091977
-384.5380000000 -281.0080000000 2514.2900000000 0.9601886992 -0.2695242290 -0.0734462519
-324.7027848101 -130.3116075949 1938.0827848101 0.9787861102 0.0802602043 -0.1885100796
235.0995238095 -284.5517142857 2809.3900000000 -0.2123014590 -0.9217664265 -0.3244606995
376.0370000000 26.5438000000 2757.6000000000 0.9744233503 0.0179934013 -0.2239985982
178.5890000000 -258.9210000000 2482.9900000000 0.4743815551 -0.8665396883 -0.1551486669
-293.1030000000 -52.4138000000 2579.3100000000 -0.0000000000 -0.0000000000 -1.0000000000
-327.9511521739 7.7566306522 1911.8200000000 0.4695801266 -0.8579968696 -0.2081727082
-291.2216153846 -161.8155384615 1730.6361538462 0.9703293329 0.1989169283 0.1374519603
-383.8760000000 -315.0390000000 2319.3800000000 0.9025567948 -0.4267099193 0.0575315303
-79.1879253687 160.0139852507 1611.9414159292 0.4344521957 -0.5673160152 -0.6995740336
-276.5220000000 -199.6520000000 2601.7400000000 0.9856289730 0.1421060767 0.0913312137
-206.3889166667 -110.7843333333 2200.0000000000 -0.8902097783 -0.4108984764 -0.1966951770
-176.5460000000 240.2285000000 1671.5200000000 0.2232221558 0.9657058753 -0.1326047943
-166.6414000000 -266.7170000000 2822.6400000000 0.5400839109 0.8413791644 -0.0197603366
128.0508181818 45.0133818182 2083.0454545455 0.9130009828 0.3950047642 -0.1019825555
270.5690000000 -47.4797000000 2432.5200000000 0.9913393874 0.0348628536 -0.1266127970
-384.0000000000 -323.0190000000 2258.1100000000 0.8845861498 -0.4641554545 0.0454649057
85.1253500000 164.0110000000 1666.8500000000 0.1113942136 -0.9901154325 -0.0852218249
-343.8383333333 -250.3930000000 2139.6933333333 0.9538048325 -0.2896933573 0.0795870610
227.9040000000 -142.4050000000 2056.3600000000 0.9808161928 0.1206101631 -0.1531430201
192.3137254902 -407.5368235294 2783.2600000000 0.0463311243 0.9853268346 -0.1642694612
-145.3970000000 -218.4130000000 2374.6000000000 -0.6633583253 -0.7397191165 -0.1130104459
-412.5420000000 -352.5420000000 2535.5900000000 0.8863117789 -0.4583406830 0.0661456638
4.1434300000 -282.3905000000 2384.0600000000 0.1027380370 0.9900786980 0.0958596237
269.7652000000 -150.4578000000 2348.5180000000 0.9707204085 0.0118303985 -0.2399206746
81.3332957895 -218.0563684211 2114.3331578947 0.2287675287 -0.8494540810 -0.4754925679
-354.4614750000 -244.6538500000 1917.9500000000 0.6029908136 -0.4340452658 -0.6693330904
-88.4562810811 -204.3358648649 2129.5400000000 -0.4495398331 -0.7942785739 -0.4086997498
-35.0988000000 -273.2020000000 2365.2200000000 0.2443336840 0.9631357957 0.1125632709
-378.0230646766 -201.1621865672 1887.8633582089 0.2162481166 -0.0965306912 -0.9715547219
232.6400000000 -253.4400000000 2393.6000000000 -0.1574298910 0.9813626002 0.1101965355
-369.4610000000 -77.6763000000 2482.9900000000 0.9903001786 -0.0625555778 0.1240659342
-331.8690937500 -160.7587812500 1911.8200000000 0.4999284078 0.0390978099 -0.8651837656
-301.4990000000 -181.4353333333 2863.1600000000 0.9839864831 0.1502972728 0.0958192613
-68.0346571429 163.1487460317 1529.6952380952 -0.0137659547 -0.9996985985 -0.0203275839
258.7500000000 -229.3750000000 2337.5000000000 0.8200504683 -0.5372403172 -0.1972056568
-340.4140000000 -257.9310000000 2063.4500000000 0.9170941883 -0.3886750618 0.0887127170
42.0465153846 -371.3488461538 2783.2600000000 0.2273701218 0.1884141514 -0.9554072091
88.1670760000 128.7878400000 1890.0880000000 -0.9477538046 -0.3157711483 -0.0452913662
-373.7230000000 -310.9490000000 2183.9400000000 0.8657623331 -0.4995158350 0.0306514785
-108.6467191011 174.5982022472 1499.7500000000 -0.0723094535 -0.8632879215 -0.4995050626
62.0796848993 -181.0822147651 2053.1234899329 0.1995516000 -0.7388739013 -0.6436183007
-353.7000000000 -263.1500000000 2191.9400000000 0.9362383669 -0.3423595037 0.0790423340
-403.6530000000 -111.9270000000 2732.4200000000 0.9800084967 -0.1695915812 0.1040290437
335.0430000000 71.7949000000 2557.2600000000 0.9887834239 0.0314310809 -0.1460117388
-307.7777857143 -361.1110714286 2770.3700000000 -0.0000000000 -0.0000000000 -1.0000000000
73.3023333333 -335.6280000000 2783.2600000000 0.0479778131 -0.9432667530 -0.3285513081
237.3550000000 -262.4790000000 2472.7300000000 -0.0830022611 0.9954056395 0.0477308855
-226.7917272727 29.4117636364 2200.0000000000 -0.9440563786 0.1015009377 -0.3137755785
261.8440000000 58.4397000000 2121.9900000000 0.9461069411 -0.2801063517 -0.1625487241
-367.9299643766 -121.3399312977 1893.6700000000 0.3420072641 0.2398200971 -0.9085798547
-184.8280000000 -256.9460000000 2947.7800000000 -0.8335039242 -0.5428790108 -0.1027306574
218.9962500000 -164.8160000000 2001.3400000000 0.9786000584 -0.0829527944 -0.1883102750
-312.0000000000 -125.1610000000 1930.3200000000 -0.8315430551 0.3914811163 -0.3940541627
-194.8900000000 -202.2910000000 2636.1200000000 0.7703400357 0.6321122678 0.0837275958
131.9190000000 -245.2526666667 2266.6700000000 0.3546332089 -0.9237788795 -0.1444571522
80.1461200000 -327.5984000000 2732.4200000000 0.1124511813 -0.9847948042 -0.1324157297
312.9302000000 -289.6374000000 2783.2600000000 0.4480763409 -0.8697709840 -0.2067027530
89.1864103448 133.2380689655 1763.4003448276 0.2487320050 -0.8815020826 -0.4013557874
-139.3527500000 104.6215000000 1731.9850000000 0.0660177481 -0.9969735997 0.0410523871
-378.7827142857 -301.7551428571 2683.4100000000 0.4666517240 0.8701184572 0.1585245688
-287.7777857143 -371.1111538462 2770.3700000000 0.0227043394 0.0683944361 -0.9973999770
70.1234555556 -236.2720000000 2144.8000000000 0.1791042869 -0.9010434092 -0.3950220616
61.3463690909 -237.2211090909 2144.8000000000 0.1335269431 -0.9125701340 -0.3865052470
-266.5172666667 -218.3425333333 2796.2600000000 0.5649821310 0.7991289639 -0.2053973970
58.5013000000 -273.0750000000 2319.3800000000 0.1293391970 -0.9817249953 -0.1395972984
260.4570000000 -291.5070000000 2732.4200000000 -0.2522739179 -0.9624696511 -0.1000501924
131.6286000000 -171.4983000000 1972.3200000000 0.9709088543 0.2254251515 -0.0807434063
-315.6508550725 185.3234492754 1459.5100000000 0.2029762157 -0.5842772665 -0.7857612434
-356.5350000000 -24.5669000000 2355.9100000000 0.9669618346 0.2336948906 0.1018406033
-27.2000000000 -278.8800000000 2393.6000000000 -0.2202667136 -0.9683246484 -0.1176008086
-79.1344222222 -242.9630000000 2241.2000000000 -0.4202897532 -0.8987295697 -0.1250667176
265.2310000000 -158.7690000000 2301.5400000000 0.9811702947 0.1319160846 -0.1410779903
-343.8490000000 -83.6226500000 2258.1100000000 0.9887974404 0.0153424484 0.1484729981
194.4620000000 -238.1540000000 2301.5400000000 0.3783068198 0.9218877417 -0.0837074772
-206.5120000000 -208.3720000000 2783.2600000000 0.7760472222 0.6261254641 0.0756148935
326.2670000000 -264.7000000000 2757.6000000000 0.8442838196 -0.5014493543 -0.1890327405
-363.7060000000 -245.6742000000 1911.8200000000 0.4781111055 -0.4572847308 -0.7498669520
-241.7606666667 -161.5093333333 2822.6400000000 0.8726433548 0.4836114902 0.0679227646
122.0030000000 47.4900235294 2052.6329411765 0.9197030846 0.3707835132 -0.1290961758
-155.5880476190 -263.3000476190 2783.2600000000 -0.5748296851 -0.7072635052 -0.4115205553
2.2325585714 -371.3488461538 2783.2600000000 0.0000000000 0.0000000000 -1.0000000000
-184.1795000000 -156.7165000000 2232.8400000000 -0.7982860223 -0.5905341132 -0.1183591473
-289.4365000000 -203.7115000000 1861.2800000000 0.5658062811 0.8146229012 0.1274863960
-351.6140000000 -278.0211666667 1942.8600000000 0.7184243399 -0.5222860388 -0.4594385285
-18.1719200000 -317.5384000000 2707.6900000000 -0.2284278663 -0.9640324187 -0.1358756992
-284.1840000000 -95.7322000000 2503.7700000000 0.9899670809 0.1160108113 0.0806639353
200.1810000000 -284.5250000000 2707.6900000000 -0.5161572801 0.8478468865 0.1213973613
112.9483333333 -311.2300000000 2659.5600000000 -0.2381118450 0.9634758189 0.1225442603
-295.3270000000 -278.6916250000 2796.2600000000 -0.8974219941 0.2844626428 -0.3372162056
250.6668133333 -31.1648840000 2129.5400000000 0.8953366845 -0.0731856417 -0.4393359571
-107.7777857143 -401.1110714286 2770.3700000000 0.0987572689 0.2089987003 -0.9729165150
-330.9190000000 -182.2702000000 2021.6200000000 0.9920081687 -0.0400910330 0.1196348707
305.0450000000 -274.2342500000 2695.5000000000 0.6422513234 -0.7478899801 -0.1678505742
34.0379666667 -289.4306666667 2432.5200000000 -0.0052762096 -0.9927784995 -0.1198457869
-301.8177250000 56.5244825000 1681.1365000000 -0.8167706860 -0.3870399020 -0.4278852191
21.9549000000 -265.5640000000 2249.6200000000 0.0127322867 -0.9893911902 -0.1447168328
101.9535214286 -401.1162307692 2783.2600000000 -0.0000000000 -0.0000000000 -1.0000000000
248.8885000000 -128.2960000000 2216.3000000000 0.9482911589 -0.2718470714 -0.1638384803
-215.4410588235 -131.6218235294 1721.5823529412 0.9915061938 0.1300293132 0.0028009769
-220.3175000000 -124.7620000000 2374.6000000000 0.8874851411 0.4512466953 0.0935229611
395.4070000000 -7.2727250000 2863.1600000000 0.9680922024 0.1611923179 -0.1918711137
-357.2940000000 -272.4164000000 2224.5400000000 0.9239999737 -0.3719336988 0.0888221388
-265.0133333333 -234.0823333333 2142.2466666667 0.6105208236 -0.7901524123 -0.0540693008
175.3703333333 154.1802222222 1780.9500000000 0.3227287532 -0.7455528474 -0.5830927059
-401.2745000000 -343.9045000000 2384.0600000000 0.8607236255 -0.5082648924 0.0286642572
-356.7410000000 -158.2220000000 2216.3000000000 0.9861334526 -0.0644906234 0.1529109973
-170.5045769231 -368.5723846154 2783.2600000000 0.1935987175 0.5154464793 -0.8347661131
-345.2158000000 106.8826000000 1730.4820000000 0.1584353519 0.9865133627 -0.0411050422
-313.8065000000 -103.5895000000 1971.6700000000 -0.3645683014 0.8807400014 -0.3023028342
255.9903888889 -82.4637750000 2168.1200000000 0.7830485582 -0.4820795665 -0.3929812300
-76.3241742424 -399.1430454545 2783.2600000000 0.3654033863 0.4272874059 -0.8269859963
-147.8065970395 158.8792861842 1569.3924506579 0.4450352653 -0.5493587382 -0.7072118420
-291.4569782609 55.4099586957 1666.8500000000 -0.6834926711 -0.4285143520 -0.5909426526
71.0303000000 -325.6968333333 2720.0000000000 0.0266561089 -0.9902804369 -0.1365068062
-173.3800000000 94.9707666667 2099.6500000000 -0.7997873395 0.3743811139 -0.4692323445
-396.8140000000 -289.5575000000 2647.7900000000 0.8248094667 -0.5634837045 -0.0466418086
-149.5887297297 -132.5519009009 2099.6500000000 -0.6983978635 -0.5517152115 -0.4559065142
80.1047500000 -137.5756805556 2014.8100000000 0.2607238543 -0.5841362356 -0.7686403125
-317.2950000000 -91.9806800000 2890.8200000000 0.9957658997 0.0278027296 0.0876200963
59.7619000000 -319.2860000000 2671.4300000000 0.0020223360 -0.9921470032 -0.1250609220
-27.8927200000 -265.8088000000 2292.7200000000 0.2251118517 0.9683092417 0.1081751663
1.7306162424 168.0359696970 1642.0466666667 -0.0586665690 -0.9972335176 -0.0456458662
-283.9400000000 -44.4179000000 1786.2700000000 0.9922187029 -0.0202823793 0.1228440909
-392.2470000000 -281.2330000000 2636.1200000000 -0.2119246037 -0.9630752543 -0.1660542587
-310.9500000000 -298.2810000000 2707.6900000000 0.5779468493 -0.8154983501 -0.0306574690
-66.0386000000 -257.2354000000 2310.4200000000 0.3435173995 0.9324062169 0.1123140371
369.9080000000 -54.3119000000 2744.9500000000 0.9725132731 -0.1162334019 -0.2017615669
-362.4290000000 -68.6640000000 2422.6700000000 -0.9875864053 0.0157806513 -0.1562819989
71.3381715447 -148.2487479675 2021.6200000000 0.2199037138 -0.6785609590 -0.7008547507
-277.9723571429 -401.1060000000 2757.6000000000 0.0562913274 0.8314988590 -0.5526671096
-225.4093333333 -140.9065000000 1870.9766666667 0.9871758336 0.1295701709 0.0932493667
122.9357500000 -321.1010000000 2744.9500000000 0.2345137430 -0.9594597751 -0.1563337595
-257.9150000000 -219.3050000000 2310.4200000000 0.9597492340 -0.2800546765 0.0212317214
-256.9891666667 -189.8859166667 1700.6722222222 -0.1429439697 -0.9373586870 -0.3176880758
92.2012583333 88.5953833333 1881.7600000000 -0.9692709159 -0.2401401631 0.0533534778
-407.6045000000 -21.9011500000 2275.2900000000 -0.5992507460 -0.7920088457 -0.1167070339
-167.9687500000 -192.5000000000 2337.5000000000 0.7103762014 0.6964860042 0.1013553074
-425.1915000000 -372.7660000000 2546.3800000000 0.9058588850 -0.4202045684 0.0533647928
-418.0943428571 -11.0139577143 2783.2600000000 -0.8731719400 -0.3366877109 -0.3524374392
305.5170000000 -169.6550000000 2579.3100000000 0.9844504232 0.1345181986 -0.1129699895
148.5323333333 -21.7520000000 2042.3200000000 0.9713635001 0.2079185062 -0.1149906324
-7.1096989157 -207.3867710843 2085.0200000000 -0.0827365646 -0.8349977569 -0.5439976166
-247.0505000000 -78.3728500000 2028.4700000000 0.9910347548 0.0784245728 0.1081651570
334.2900000000 -32.1800333333 2524.8900000000 0.9748851351 -0.1469951154 -0.1673063340
59.3231000000 132.4310000000 1841.2300000000 0.1856723982 -0.9812242185 0.0521995553
-284.0351359223 -141.4547378641 1693.9269902913 -0.8876942680 0.0309381416 -0.4593927708
-389.7440000000 -291.2823333333 2557.2600000000 -0.9174527521 0.3830364704 -0.1075337620
-247.7777857143 -351.1111538462 2770.3700000000 -0.0000000000 0.0000000000 -1.0000000000
-287.7576666667 -191.5153333333 2720.0000000000 0.9847418646 0.1581950046 0.0725106933
-380.9205000000 -145.2720000000 2503.7700000000 -0.7155378255 0.5530623755 -0.4267641376
325.5740000000 0.3278690000 2452.4600000000 0.9759417588 -0.0341478626 -0.2153406762
-222.9270000000 -133.4150000000 1824.3900000000 0.9901609467 0.1224414360 0.0677450694
0.2116400000 -328.8890000000 2770.3700000000 -0.0692211876 -0.9837469284 -0.1656816465
-229.0090000000 127.0272500000 2695.5000000000 0.8939869982 -0.4387403485 -0.0910722447
251.4433333333 -67.0242666667 2292.7200000000 0.9904808818 0.0473063253 -0.1292661377
-347.0030000000 190.2840000000 1887.7000000000 0.2797788296 0.9580575576 -0.0620445223
216.1590000000 -148.6095000000 1981.4600000000 0.9882962631 0.0160548624 -0.1516994980
-314.2600000000 -298.4752500000 2683.4100000000 0.5134309363 -0.8550157290 -0.0730532468
-217.3794444444 77.9436333333 2232.8400000000 0.9038826675 -0.4277400207 0.0058820112
204.1600000000 -246.4000000000 2393.6000000000 0.4290333296 0.9029911332 0.0231822247
102.5711222222 136.8678333333 1800.3061111111 0.0509221449 -0.9933470047 -0.1032892226
-66.8444250000 -298.1332500000 2659.5600000000 0.3395177718 0.9367941408 0.0845246734
171.3052857143 173.8010000000 1612.9400000000 0.0151425559 -0.9994610423 -0.0291260706
-395.3330000000 -319.3330000000 2493.3300000000 0.8942385500 -0.4437082475 0.0588252220
163.0338636364 165.8515113636 1650.3454545455 0.1727114111 -0.9776617794 -0.1197840288
-392.6360000000 -312.6360000000 2503.7700000000 0.9171503394 -0.3929496589 0.0665268405
292.1375000000 -279.3423333333 2683.4100000000 0.4150724212 -0.8958137486 -0.1588477667
102.2273000000 -141.6023880597 2029.4741044776 0.3759519121 -0.5707379858 -0.7300125419
-217.7777692308 -401.1110714286 2770.3700000000 -0.0000000000 -0.0000000000 -1.0000000000
272.5260000000 -286.2780000000 2683.4100000000 -0.1582323187 0.9814171202 0.1085493869
-236.1900000000 60.9524000000 2374.6000000000 0.9472609763 -0.3057042550 0.0961329875
-237.8667500000 -194.4885000000 1773.0400000000 0.5515493250 -0.8303294735 -0.0796637155
-166.4122000000 -180.7340000000 2241.2000000000 0.7540816911 0.6480241582 0.1068901004
83.4863800000 -270.8174000000 2328.4000000000 0.2133834460 -0.9694565624 -0.1209193062
354.2410833333 -387.7932500000 2809.3900000000 0.0290920406 0.6394337548 -0.7682955983
94.9091000000 -321.8185000000 2720.0000000000 0.1560271823 -0.9765080687 -0.1486186738
121.8410000000 -286.5270000000 2503.7700000000 0.2403709502 -0.9601924633 -0.1423103642
242.2430000000 -371.2148571429 2796.2600000000 -0.0000000000 -0.0000000000 -1.0000000000
62.0587842767 -161.3469371069 2031.7247169811 0.2253243947 -0.6637670331 -0.7131915892
-269.3955000000 -331.1630000000 2783.2600000000 -0.0508368641 0.5688273097 -0.8208843432
-290.1263333333 -124.7720000000 1741.2233333333 0.9769963659 -0.1741520675 0.1230819176
-138.8341666667 -263.4378333333 2683.4100000000 -0.5849375872 -0.8033564224 -0.1116533819
-389.1164181818 -267.0042363636 1911.8200000000 0.2217848907 -0.5065717138 -0.8331845900
-255.2300000000 -11.7154925000 2503.7700000000 -0.9928347494 0.0044827791 -0.1194113272
-360.4376030534 -239.0859083969 1905.7300000000 0.4569749610 -0.4039646711 -0.7924559480
-142.7690000000 -211.0770000000 2301.5400000000 0.6694590570 0.7357837839 0.1022095613
302.0560000000 -401.1215000000 2796.2600000000 0.0000000000 -0.0000000000 -1.0000000000
-273.8433333333 184.0990000000 1477.5300000000 0.2456879007 -0.5458970950 -0.8010204848
-292.6170000000 -227.1140000000 2008.0500000000 0.3262561205 0.9345694568 0.1419044547
120.4916406250 -218.2202812500 2143.2440625000 0.3677594459 -0.8379563343 -0.4032147960
-255.6100000000 -224.6690000000 2085.0200000000 0.6762738913 -0.7355774241 -0.0397426361
-339.3653121387 -241.0501445087 1930.3200000000 0.7596313429 -0.3746319155 -0.5316118422
-249.7161428571 -213.8598571429 1972.1342857143 -0.6149593051 0.7884178147 -0.0149131645
-260.4445000000 -232.2965000000 2216.3000000000 0.8397934219 -0.5420412812 -0.0306309967
-338.0645384615 -401.1060000000 2757.6000000000 -0.0243275265 0.2554511563 -0.9665158448
-349.7597336066 -111.9210614754 1905.6060245902 0.5698322637 0.2286203174 -0.7893186567
346.5667333333 -241.6776666667 2809.3900000000 0.9286521969 -0.0716827806 -0.3639597177
-418.0645714286 -381.1981538462 2757.6000000000 -0.0000000000 -0.0000000000 -1.0000000000
72.2779833333 -270.8880000000 2310.4200000000 0.1590659139 -0.9768193247 -0.1432551637
-47.6555362117 -70.9683119777 1981.4600000000 -0.3352186638 -0.3458112412 -0.8763806438
146.7665000000 214.1350000000 1499.7500000000 0.0985882585 -0.8691374403 -0.4846446792
-169.1080000000 108.3080000000 1841.2300000000 -0.1249765596 0.9889844250 -0.0793137226
-224.2368333333 -121.6953333333 1832.7750000000 0.9919288442 0.1155125222 0.0522879080
-358.7300000000 -106.0320000000 2374.6000000000 0.9792323500 -0.1843856654 0.0842966845
0.8456659394 -345.0768484848 2783.2600000000 0.1181210694 0.2514827463 -0.9606267960
-328.3939007353 -171.2730588235 1920.9215808824 0.8076952076 -0.0533387053 -0.5871826241
-416.3720000000 -140.1657826087 2783.2600000000 -0.9065195030 0.3545593885 -0.2291506724
-302.6730000000 -109.4930000000 2757.6000000000 0.9899803538 0.1226819311 0.0699145397
183.4860000000 -299.4500000000 2744.9500000000 0.3811127528 -0.9103374544 -0.1613653889
-327.1680000000 -39.5699000000 2144.8000000000 0.9860918250 0.0915278633 0.1387283782
163.8143559322 -398.3526101695 2796.2600000000 0.2465022433 0.4849587741 -0.8390778459
109.8566603774 -167.6976415094 2056.3600000000 0.3369302503 -0.7058504333 -0.6230996488
-434.6302295082 -380.9080819672 2757.6000000000 0.6111828776 -0.3687841684 -0.7003240159
-209.6842000000 -252.4786000000 2863.1600000000 0.4128498005 0.9081327539 0.0696415360
-18.3658000000 -273.3070000000 2328.4000000000 -0.1116255168 -0.9862369635 -0.1219688314
-381.4110000000 -286.1410000000 2482.9900000000 0.9336563190 -0.3543121614 0.0524287161
-117.1930000000 -268.7720000000 2624.5600000000 0.4954524383 0.8648814259 0.0806659812
286.1070000000 -68.5496250000 2283.9700000000 0.9593828980 -0.2396444061 -0.1488456036
374.5138461538 -102.6413538462 2822.6400000000 0.8688969404 -0.3236387151 -0.3745344965
126.2890000000 2.7672933333 1881.7600000000 -0.9187052456 -0.3949394918 0.0018626488
64.0162200000 -225.2159142857 2121.9900000000 0.1529280958 -0.8742546289 -0.4607513878
-255.8474000000 -228.1143000000 2849.5200000000 0.4870218846 0.8698149720 0.0789404739
-347.9136000000 -297.0044000000 2590.4800000000 -0.1212071694 -0.9814191554 -0.1487456334
-39.8933333333 -275.6266666667 2393.6000000000 -0.2742286834 -0.9537442066 -0.1231690609
-153.2645000000 -76.8384750000 2056.3600000000 -0.7211703327 -0.3190458952 -0.6149171228
-297.7777692308 -371.1111538462 2770.3700000000 0.1413229009 0.0506600677 -0.9886664732
-237.6920000000 -151.9835000000 2031.9200000000 0.9881334066 0.1100216293 0.1071802778
-174.7280000000 -207.8660000000 2503.7700000000 0.6947627831 0.7140238187 0.0864561250
154.4370000000 -201.5895000000 1981.4600000000 0.5003604691 0.8655464737 0.0216495461
188.4980000000 -268.4980000000 2568.2400000000 0.4987852890 -0.8486587111 -0.1760443911
255.8826000000 -103.4432000000 2191.9400000000 0.8244851934 -0.5139873550 -0.2367301517
-274.6420000000 48.8473666667 2796.2600000000 -0.9256616601 0.3653084568 -0.0984897069
49.0323000000 -287.0970000000 2412.9000000000 0.0787538399 -0.9818176597 -0.1727191822
-240.8471666667 170.6358611111 1495.1883796296 0.5195737718 -0.5362216729 -0.6652138101
-240.3640000000 113.4550000000 2720.0000000000 0.9025853930 -0.4294820593 0.0297450671
42.5232494845 -212.0164742268 2092.3100000000 0.0535995279 -0.8491650956 -0.5254005435
-380.3390000000 -19.8870000000 2535.5900000000 0.9413009919 0.3125185038 0.1276112351
237.3145000000 -67.1378250000 2114.4900000000 0.8997975811 -0.0541911768 -0.4329291274
-252.6320000000 -170.8270000000 2249.6200000000 0.9835119531 0.1638717911 0.0764870858
262.1596428571 -341.0329230769 2809.3900000000 0.0715124008 0.4342459072 -0.8979512618
42.0465153846 -407.8140000000 2783.2600000000 0.0000000000 -0.0000000000 -1.0000000000
91.1752364341 108.5271511628 2001.3400000000 0.2564389200 0.3223086626 -0.9112388306
-417.0435000000 -351.6522500000 2601.7400000000 0.9028611542 -0.4266042103 0.0533908611
-377.6492275862 35.5140620690 1841.2300000000 0.0737499803 -0.7035588408 -0.7067997581
-248.4550000000 -29.2683000000 2432.5200000000 0.9959357136 0.0538791304 0.0721740509
-422.1850000000 -369.7480000000 2514.2900000000 -0.8934612056 0.4408033431 -0.0861364433
-226.5303333333 78.1816000000 2349.7500000000 -0.9003266685 0.4193031080 -0.1166052898
126.5525000000 31.3993250000 2042.3200000000 0.8755703463 0.4582963822 -0.1527775988
-157.7777692308 -401.1110714286 2770.3700000000 -0.0000000000 -0.0000000000 -1.0000000000
-312.6570000000 -36.3285000000 2890.8200000000 0.9822402550 -0.1800353655 0.0528332150
259.7705714286 31.6996857143 2183.9400000000 0.4343573556 -0.8863282828 -0.1604863318
83.2028593750 -224.9198906250 2129.5400000000 0.2549350411 -0.8733659419 -0.4150181398
-364.4440000000 -274.0230000000 2292.7200000000 0.9309805840 -0.3564502070 0.0788568458
-204.5788333333 -129.5095000000 2258.1100000000 0.8561583402 0.5060748571 0.1043126815
198.7390625000 -151.0062500000 1874.7612500000 0.9787536562 -0.0313091013 -0.2026351909
-253.5340000000 -162.7070000000 2249.6200000000 0.9906220210 0.1166989816 0.0710588439
-256.1540000000 -147.6920000000 2876.9200000000 0.8830985804 0.4581558624 0.1011439715
321.8779230769 -341.0329230769 2809.3900000000 0.0000000000 -0.0000000000 -1.0000000000
-368.9600000000 -262.7200000000 2393.6000000000 0.9253281355 -0.3787049374 -0.0187192988
-271.4466666667 -214.3396666667 2822.6400000000 0.5728628095 0.8168300593 0.0679474484
-337.3490000000 -80.1124000000 1961.9700000000 0.9512668391 0.2910083403 0.1020075812
-170.7560000000 -212.4370000000 2514.2900000000 0.6830006604 0.7263600122 0.0768845273
77.6569000000 -295.9000000000 2503.7700000000 0.1419184875 -0.9796912279 -0.1416483000
-386.0680000000 -23.9915666667 2170.7466666667 0.8340126557 0.5364823236 0.1288782627
-222.7230000000 -190.7980000000 2809.3900000000 0.8480945805 0.5217479138 0.0922751158
-44.7942846154 -407.0127692308 2783.2600000000 0.0727194163 0.7189878381 -0.6912079102
-344.1060000000 -273.5100000000 1981.4600000000 0.8892776438 -0.4569810917 0.0188030335
-363.7005000000 -299.5590000000 2636.1200000000 0.3729961419 0.9183375803 0.1324007811
-349.8661578947 -220.5199138756 1905.7300000000 0.6161110562 -0.2321179352 -0.7526808292
-429.2170000000 -375.6520000000 2601.7400000000 0.8742520425 -0.4851916412 0.0165056789
247.2450000000 -30.7925000000 2258.1100000000 -0.9900647409 0.0953277530 0.1033655086
-87.2074333333 136.5520000000 1641.5000000000 0.0550576154 -0.9984458205 0.0086372763
-328.4981428571 -181.5065714286 2001.3400000000 0.9948745211 -0.0043621949 0.1010230596
-369.4120000000 -303.5290000000 2200.0000000000 0.8937094427 -0.4438154514 0.0656603161
308.9330000000 -8.8537500000 2365.2200000000 0.9770387067 -0.1305066390 -0.1684143191
-374.2210000000 -291.7015000000 2351.2900000000 0.9192178643 -0.3888466703 0.0619417866
312.1127692308 -341.0329230769 2809.3900000000 -0.0000000000 0.0000000000 -1.0000000000
-44.9935666667 -263.9896666667 2310.4200000000 -0.2778242224 -0.9533286063 -0.1182297338
-233.0220000000 -14.7040500000 1864.1700000000 0.9701594209 -0.2271764293 0.0847441328
-278.2724000000 -210.3285500000 2809.3900000000 0.5573978280 0.8300564796 0.0177172830
-218.0465000000 -281.3023076923 2783.2600000000 0.0000000000 0.0000000000 -1.0000000000
21.8353151515 -226.9708181818 2114.4900000000 -0.0054195211 -0.8826119673 -0.4700709988
136.9130000000 -62.8188000000 2008.0500000000 0.3839977107 -0.2665768824 -0.8840150021
114.5808000000 36.9548400000 1930.3200000000 0.9246090597 0.3752556162 -0.0654317147
-357.9723076923 -401.1060000000 2757.6000000000 -0.0000000000 0.0000000000 -1.0000000000
-255.3260000000 -175.3260000000 2292.7200000000 0.9903738658 0.1068455245 0.0879979533
203.5900000000 -119.6580000000 1917.9500000000 0.9780489546 0.1494647811 -0.1451913276
-334.1680000000 -109.9080000000 2140.9700000000 -0.8728302683 0.3434273102 -0.3467347766
-222.3002500000 -7.6859450000 1742.0700000000 0.9577009881 -0.2804164178 0.0646177225
318.9203333333 26.7746333333 2422.6700000000 0.9818537629 0.0967307947 -0.1631145049
-341.7570000000 -285.8580000000 2503.7700000000 -0.1535919211 -0.9787777977 -0.1356596639
-287.9668461538 9.1848165385 1711.0292307692 -0.8888149520 -0.4271245491 -0.1660499943
-287.8470000000 28.5167750000 2863.1600000000 0.9354948730 -0.3489710248 0.0553946436
-387.6568647799 -272.0077641509 1917.9500000000 0.1739033756 -0.5041575721 -0.8459212484
-108.0323862069 185.5824344828 1470.7497241379 -0.2570098823 -0.9542498252 -0.1528175105
-354.2045000000 -275.9210000000 2140.9700000000 0.9031687313 -0.4236776304 0.0691629110
113.2465000000 -300.9520000000 2590.4800000000 0.2384273844 -0.9591305293 -0.1523844156
-357.3852528090 -120.7756544944 1899.8329494382 0.5611995175 0.1807401763 -0.8077054477
-317.5170000000 -223.4480000000 2063.4500000000 -0.2559619701 -0.9414643628 -0.2193816842
-183.4615000000 -248.0770000000 2876.9200000000 0.8935080460 0.3425933210 -0.2902984465
-96.2797790323 -309.7980000000 2796.2600000000 0.6704179391 0.7303506082 -0.1308731293
-257.1650000000 -158.7740000000 2292.7200000000 0.9918920338 0.0856519468 0.0938825715
-256.2342000000 -152.5074000000 2919.0200000000 -0.8819810804 -0.4571916350 -0.1143904831
205.7510000000 -148.7540000000 1911.8200000000 0.9838520679 -0.0223249150 -0.1775857729
221.1155000000 -263.3475000000 2568.2400000000 0.4110492749 0.9102963415 0.0489802427
