-192.5730588235 48.9336264706 1710.8629411765 0.9155596749 -0.3921168594 -0.0894139267
-156.0140000000 122.4200000000 2129.5400000000 -0.2996223451 0.9470146478 -0.1157139024
-196.7250000000 44.6783500000 1749.7100000000 0.9038051624 -0.4234982981 0.0615257665
-220.1440000000 56.8345500000 2152.5200000000 0.9060494634 -0.4187897560 0.0607413386
-197.2640000000 78.1759000000 1949.1900000000 -0.9455055230 0.2959109821 -0.1358528494
-238.0646666667 61.5053666667 2412.9000000000 0.9145570383 -0.3974454896 0.0749833747
-223.9596666667 59.3484000000 2249.6200000000 0.9241929309 -0.3791881558 0.0456483193
-186.1052750000 56.5754400000 2099.6500000000 -0.8508203127 0.2190291996 -0.4776306159
49.1878516129 162.8673870968 1590.5416129032 0.0391765881 -0.9991441293 0.0132741769
196.4838194444 50.4607000000 1824.3900000000 0.6128507026 -0.4468448280 -0.6517236501
221.3840000000 49.5597500000 1881.7600000000 0.9203039791 -0.3643729303 -0.1423831230
263.4592000000 57.5089000000 2129.5400000000 0.9511496402 -0.2651203239 -0.1581947400
300.8333333333 61.0416666667 2337.5000000000 0.9797845526 0.0881549267 -0.1795854654
109.2410000000 94.3448000000 2063.4500000000 0.9574075201 0.2644776119 -0.1158552253
-323.6572307692 47.9173769231 1832.9907692308 -0.7070902266 -0.6127307158 -0.3529652693
-311.6536923077 47.6017230769 1753.2615384615 0.9175337003 0.3854983374 0.0975855558
-156.2855000000 122.8570000000 2137.1400000000 -0.1968728657 0.9721638601 -0.1270374110
-195.7350000000 43.3429000000 1724.5000000000 0.9047096888 -0.4202906871 0.0696858474
406.6670000000 92.5490000000 2933.3300000000 0.9703461309 -0.1467003843 -0.1921129444
-211.3910000000 49.8013000000 1981.4600000000 0.9065771603 -0.4200668972 0.0407633949
-219.0680000000 56.7742000000 2144.8000000000 -0.8341273731 0.5124361543 -0.2040605627
-237.4300000000 60.4016000000 2403.2100000000 0.8823530056 -0.4637175357 0.0801200386
-236.1600000000 60.1600000000 2393.6000000000 -0.8930724812 0.4188626258 -0.1642426377
-233.6760000000 59.4466000000 2365.2200000000 0.9141792243 -0.4009689513 0.0591628770
-230.6610000000 58.5214000000 2328.4000000000 0.9158450403 -0.3985083563 0.0491828442
170.2560000000 69.0598000000 2557.2600000000 -0.0000000000 -0.0000000000 -1.0000000000
-199.5931058824 58.1251917647 2129.5400000000 -0.8566073268 0.1848695582 -0.4817127091
-296.3683157895 50.5813631579 1676.1900000000 -0.7776020944 -0.3953645280 -0.4888986324
-196.6902820513 57.2249448718 2121.9900000000 -0.8937011929 0.2281823093 -0.3863042992
-195.3360000000 53.9929250000 2114.4900000000 -0.8738916016 0.2206742726 -0.4331470122
-190.3097766990 58.1168781553 2110.5841747573 -0.8564655528 0.2547083476 -0.4489882121
-209.0123858268 202.2206692913 1462.9394488189 -0.0478198827 -0.8982361005 -0.4369040703
-164.7060000000 52.0415000000 2070.5900000000 -0.8044653057 0.2106328074 -0.5554002092
-104.0459285714 51.8504000000 2008.0500000000 -0.5466607926 0.2408685619 -0.8019627882
114.4386666667 51.6605333333 2012.5566666667 0.9388179065 0.3305090775 -0.0968746002
228.1290000000 48.5161000000 1930.3200000000 0.9172616651 -0.3707174568 -0.1456008412
235.7760000000 49.6370000000 1974.9200000000 0.9240450064 -0.3565094416 -0.1379921890
304.0000000000 58.9804000000 2346.6700000000 0.9788101479 0.1335695946 -0.1552090774
338.0056666667 66.3247666667 2557.2600000000 0.9851676963 0.0614561685 -0.1602115776
107.4970000000 94.4867333333 2070.5900000000 0.9372411256 0.3379423652 -0.0858721748
-324.1050000000 46.5316000000 1861.2800000000 0.9641668399 0.2545705875 -0.0746734280
-313.5306666667 46.3905666667 1770.4100000000 0.9101515151 0.3963996380 0.1203808394
-310.0678461538 46.9392846154 1743.4376923077 0.9050290889 0.4018654712 0.1393789482
-161.9338771930 117.0591666667 2108.3470175439 -0.6655359521 0.6857997755 -0.2945175114
-196.4060000000 43.1304000000 1734.4900000000 0.9062772511 -0.4194302878 0.0523428866
-191.8145000000 112.8790000000 1991.3550000000 -0.7530129170 0.6226576645 -0.2127650807
-226.8660000000 55.5224000000 2232.8400000000 0.9322521176 -0.3559938487 0.0646093561
-206.0917380952 56.8422714286 2144.2528571429 -0.8981685997 0.2434925022 -0.3660663436
-203.1269615385 59.0755451923 2139.4232692308 -0.8446967223 0.2971148270 -0.4452080716
114.6230000000 48.7869000000 1961.9700000000 0.9149359103 0.3910107615 -0.1000143209
178.7446167401 50.0333660793 1813.3300000000 0.2895750682 -0.4282072417 -0.8560285264
251.6265000000 52.0415500000 2070.5900000000 0.9203326911 -0.3599838434 -0.1529685266
130.3846133005 88.4914423645 1801.9569458128 -0.4546871067 -0.2793128626 -0.8457209704
268.5920000000 55.8844750000 2160.2900000000 0.9602718205 -0.1992638563 -0.1953764219
-300.9334117647 157.1852941176 1529.5176470588 -0.2599884268 -0.9654929829 0.0151432489
312.6100000000 59.7590000000 2403.2100000000 0.9800122782 0.1214728646 -0.1575445264
286.1425000000 56.0299500000 2241.2000000000 0.9802726777 0.1121016357 -0.1627842149
341.2875000000 64.5494000000 2568.2400000000 -0.9606992508 -0.2574639093 0.1037751650
375.8026666667 71.1111333333 2770.3700000000 0.9733276175 0.1513666220 -0.1723992306
-323.8317500000 46.2439750000 1849.7700000000 -0.8041097025 -0.5508177841 -0.2236232435
-314.6990000000 44.3373000000 1802.4100000000 0.8973484881 0.4227481803 0.1266872802
-157.8691363636 116.4785681818 2099.6500000000 -0.8167217099 0.4804888543 -0.3195248183
-196.3053333333 46.9977333333 1763.4600000000 0.9109577525 -0.4080977442 0.0601016161
-230.4250000000 56.8340000000 2310.4200000000 0.9306101655 -0.3619695826 0.0542470385
-226.9316000000 58.1374200000 2283.9700000000 -0.9043367726 0.4099343124 -0.1188648866
-223.6203333333 59.2259500000 2241.2000000000 0.9226465112 -0.3806569705 0.0618359612
-219.9579285714 58.9075571429 2200.0000000000 0.9333648317 -0.3477097696 0.0890393564
-219.0266428571 58.0219857143 2191.9400000000 -0.9391000598 0.3245620374 -0.1129183843
-217.5811176471 56.0009235294 2174.3776470588 -0.9586613020 0.2493659090 -0.1370589345
-213.7560281690 58.5865647887 2169.6738028169 0.9635130623 -0.2495005826 0.0969125280
93.5037395349 51.5139093023 1981.4600000000 0.2268582226 0.2597492887 -0.9386509755
231.1685000000 49.8701500000 1942.8600000000 0.9175649595 -0.3637315819 -0.1605424597
240.0000000000 49.2308000000 2001.3400000000 0.9129856774 -0.3741335661 -0.1627305365
271.2200909091 55.8348090909 2173.1345454545 0.9749202608 -0.0932351083 -0.2020833977
-222.8380000000 165.2806666667 2962.3800000000 0.8710077777 -0.4857605625 0.0733629820
357.3330000000 65.4222000000 2659.5600000000 0.9705485929 0.1939312877 -0.1429198533
-340.8209626866 49.9864100746 1835.2660074627 0.2965139649 -0.6359882384 -0.7124594229
-341.3686666667 48.3885000000 1981.4600000000 0.9294205074 0.3584206540 0.0878188775
-352.7780000000 50.5556000000 2077.7800000000 0.9034669283 0.4132059015 0.1140543398
-197.7856000000 47.1698400000 1782.0140000000 0.9080642252 -0.4142995946 0.0614427280
-206.1300000000 46.5080000000 1890.6850000000 0.9067035605 -0.4155898370 0.0719287196
-197.1760000000 42.8235000000 1760.0000000000 0.9014843765 -0.4291463228 0.0562081189
144.8770000000 163.0680000000 1639.4500000000 0.0648242491 -0.9964376633 -0.0539425610
-190.4520000000 104.7740000000 1930.3200000000 -0.4948158985 0.8571183546 -0.1431969023
-225.1850000000 53.9259000000 2216.3000000000 0.9381185371 -0.3361785868 0.0831719184
-230.5543028953 68.6219111359 1643.8394654788 0.3023253573 -0.3216950421 -0.8972801559
-227.2560000000 55.6269666667 2269.5433333333 -0.9083468604 0.4022292102 -0.1145322822
-225.8110000000 56.4528500000 2258.1100000000 -0.9051200341 0.4092883808 -0.1150684374
-217.7846086957 57.8610000000 2183.9400000000 -0.9456611236 0.2752457605 -0.1731034679
273.2120000000 55.2554875000 2183.9400000000 0.9649947494 0.1199586206 -0.2332274919
-205.0700000000 87.3239000000 2107.0400000000 0.9459932850 -0.3200278779 0.0517577246
274.5790000000 53.6263500000 2191.9400000000 0.9724324200 0.1121341990 -0.2044531975
298.2950000000 58.2945500000 2319.3800000000 0.9484432022 0.2684738792 -0.1684555383
301.6340000000 56.6537000000 2328.4000000000 0.9716732185 0.1629127119 -0.1712034017
-349.5025000000 49.6737500000 2052.8400000000 0.9030865261 0.4072281083 0.1363817959
-202.0090000000 44.8113500000 1821.6150000000 0.9143353957 -0.4007461959 0.0582517873
144.2620000000 163.0600000000 1634.9700000000 0.1046131486 -0.9920592130 -0.0698183864
-189.2310000000 107.6920000000 1917.9500000000 0.5498178238 -0.8333122625 0.0573675331
-225.6180000000 53.9326000000 2241.2000000000 0.9357225024 -0.3450053210 0.0734488060
-221.2779523810 58.5888761905 2211.2361904762 0.9121411409 -0.3988784736 0.0943106693
115.9080000000 49.8130000000 1974.9200000000 -0.9057964096 -0.3907774391 -0.1637860112
279.5170909091 55.4860090909 2211.8381818182 0.9673086180 0.1374464393 -0.2131255825
292.5187500000 57.5572500000 2283.9700000000 0.9728196800 0.1286212778 -0.1925576203
-220.7280000000 153.7250000000 1676.1900000000 0.9420370161 0.3348597576 0.0208615225
360.5383333333 66.9656333333 2683.4100000000 0.9625685721 0.1840856485 -0.1989326971
-353.4950000000 49.2734000000 2070.5900000000 0.9125442632 0.4010292587 0.0802402726
-355.8040000000 49.7902000000 2092.3100000000 0.8652290104 -0.4859831766 0.1232846771
-342.2070000000 47.6254000000 2001.3400000000 0.9082355405 0.4112900106 0.0771280116
58.9211672131 75.1306573770 1974.9200000000 0.1713451187 0.3220046524 -0.9311035679
-194.5145000000 41.3714000000 1709.7100000000 0.8999100580 -0.4248448270 -0.0983298553
-184.7576000000 51.5929600000 2099.6500000000 -0.8485238507 0.2162571625 -0.4829493912
112.7248000000 47.8446200000 1936.5700000000 0.9099046718 0.4078470166 -0.0757251563
125.5395714286 44.4561000000 1829.9700000000 -0.6343194644 -0.4521625658 -0.6270469131
129.9152837209 48.2037034884 1821.0987209302 -0.5583995290 -0.4878090440 -0.6709935190
137.9300780488 46.3578263415 1818.8670731707 -0.4498833772 -0.4765342976 -0.7553277501
159.9647500000 47.9362548165 1812.4627522936 0.0521787489 -0.4877828649 -0.8714041857
181.1047663043 45.7618625000 1818.8400000000 0.4041196449 -0.4649047659 -0.7877505133
189.8594893048 48.1653770053 1821.5853208556 0.5131169167 -0.4662841061 -0.7206179031
221.9410000000 46.9198333333 1893.6700000000 0.9165062158 -0.3721593003 -0.1466758729
283.7525714286 55.8635428571 2232.8400000000 0.9772814788 0.1068591069 -0.1830356318
289.9798571429 57.8759714286 2271.5957142857 0.9715128625 0.1552867722 -0.1790217202
-129.2713333333 110.8931111111 1863.5277777778 -0.0783843908 0.9947765395 -0.0653874886
338.0430000000 60.5957000000 2546.3800000000 0.9772245788 0.1218225118 -0.1737567212
374.9310000000 65.9907500000 2757.6000000000 0.9685386153 0.1560933586 -0.1938241832
-359.8874402985 47.6206855721 1831.1561940298 0.2073049870 -0.6152228518 -0.7606086280
179.8230000000 71.5044000000 2647.7900000000 -0.0000000000 -0.0000000000 -1.0000000000
-350.2298154897 48.1648653759 1833.1008656036 0.2511285035 -0.6242758336 -0.7397392502
179.6845775000 87.9963517500 1798.6365250000 0.3509328034 -0.1989859264 -0.9150140811
-345.9975384615 43.9290076923 1841.2300000000 0.3091288663 -0.6412049363 -0.7023500365
-339.3258444444 45.5904238889 1841.2300000000 0.3093595817 -0.6653100516 -0.6794550643
-331.5691979167 49.4743635417 1841.2300000000 0.0743089729 -0.6674528688 -0.7409351149
-336.0990000000 44.3457000000 1846.9100000000 0.4179370411 -0.7587808679 -0.4995800479
-329.9428011364 45.6843107955 1847.3650000000 0.1449313299 -0.8283460602 -0.5411448181
176.0700000000 71.2664000000 2613.1000000000 -0.0000000000 -0.0000000000 -1.0000000000
-347.3020000000 48.0812000000 2031.9200000000 -0.8846496267 -0.4418542400 -0.1488619111
-357.8353333333 50.4467666667 2112.0066666667 0.9042277507 0.4255396260 0.0358915251
-351.7242500000 49.5172500000 2063.4500000000 0.8990155586 0.4169218930 0.1339670128
-324.3825000000 44.5705500000 1872.9300000000 0.9795929793 0.2009872681 0.0013088363
-250.2254618834 40.9305578475 1653.0400000000 -0.0164492078 -0.4450527806 -0.8953532521
-213.7837500000 50.2702750000 2021.6200000000 0.9112098514 -0.4096552589 0.0433494595
9.4625987895 50.1412763158 1968.4200000000 -0.0627264631 0.3319549727 -0.9412073560
20.4000941176 49.7451782805 1968.4200000000 0.0425388921 0.3468658045 -0.9369496018
49.9598677966 162.1986101695 1570.0498305085 0.0321445814 -0.9994105443 -0.0120536240
204.3078750000 44.0000125000 1841.2300000000 0.7321503753 -0.4194934940 -0.5366386461
212.1106830986 47.2083302817 1848.2795774648 0.8206163590 -0.4095187271 -0.3986015599
217.1656875000 48.9327875000 1859.1125000000 0.9010849481 -0.3631252972 -0.2370357249
232.1310000000 46.1639000000 1961.9700000000 0.9211335909 -0.3680678628 -0.1266450003
255.1050000000 49.2308000000 2092.3100000000 0.9225332427 -0.3522377793 -0.1576735960
297.4515000000 54.6718000000 2310.4200000000 0.9723225917 0.1442530260 -0.1837929327
380.1867500000 69.5327250000 2796.2600000000 0.9689928775 0.1710637337 -0.1782975109
-327.7708000000 44.8310200000 1863.0140000000 0.9812558796 0.0931401805 -0.1687062700
-341.4633333333 47.3627000000 1990.2500000000 0.9141735874 0.3896661703 0.1115658003
-338.2295000000 47.0819500000 1961.9700000000 0.9022341718 0.4127764515 0.1248563191
-339.1605000000 47.0114750000 1970.0450000000 0.9088562859 0.4046450630 0.1012058529
-328.9710000000 45.4953500000 1890.6850000000 0.9176514817 0.3777928628 0.1232408658
-326.4155000000 45.1572500000 1881.7600000000 0.9276239461 0.3648861293 0.0798243530
-207.3286000000 46.1064200000 1903.3100000000 0.9041490440 -0.4250059159 0.0434105720
-206.9383333333 48.9916333333 1922.0633333333 0.9164672947 -0.3965538462 0.0532235359
118.6022500000 47.1229000000 1991.3550000000 0.9771529132 0.1681843920 -0.1299468913
214.6580000000 43.4782500000 1858.3900000000 0.8565234637 -0.4166326021 -0.3046060258
383.3960000000 65.6604000000 2822.6400000000 0.9749233120 0.0725436318 -0.2103852592
371.2292000000 68.5504800000 2744.9500000000 0.9655111335 0.1562607055 -0.2082566757
-328.0250000000 45.0156750000 1875.8600000000 0.9760337231 0.2151219138 0.0328745121
-331.0852857143 45.6523571429 1903.1371428571 0.9275362451 0.3552303391 0.1161375054
-343.2605000000 46.7909500000 2011.4300000000 0.9013899965 0.4215780380 0.0988333550
-211.5490000000 46.5410000000 1970.5866666667 0.9019635625 -0.4222098991 0.0905567948
-213.5125000000 48.1323250000 2011.4300000000 0.9100819030 -0.4069543386 0.0783523843
146.5650000000 52.5191000000 2283.9700000000 0.9133768537 0.3806946798 -0.1442715629
-223.6600000000 130.7230000000 2546.3800000000 0.8688841229 -0.4500542091 -0.2061348827
141.4930000000 51.9403000000 2232.8400000000 0.9238820668 0.3644227594 -0.1167817584
108.7514000000 48.4009133333 1890.8840000000 -0.9337077291 -0.3565255358 0.0328545115
107.4647037037 47.8815740741 1872.6044444444 -0.9330720691 -0.3556938388 0.0534640708
223.1310000000 43.9617000000 1911.8200000000 0.9102856161 -0.3859292728 -0.1497955057
256.0000000000 48.5614000000 2099.6500000000 0.9297492587 -0.3263652186 -0.1704466488
319.6735000000 58.7755500000 2442.4500000000 -0.9799944312 -0.1541229836 0.1259246633
-337.1496666667 45.9648000000 1953.4366666667 0.8994154606 0.4227131045 0.1112000923
-211.4066666667 50.2609000000 1992.4600000000 0.9078237059 -0.4176568424 0.0376680364
-216.5190000000 46.4164000000 2042.3200000000 0.8957472187 -0.4380877608 0.0756044577
-216.9316666667 48.1661000000 2070.5900000000 0.9075198323 -0.4170882724 0.0494482259
-220.0710000000 48.3986000000 2129.5400000000 0.5312236308 -0.6564733451 -0.5355783801
110.2945000000 46.8405750000 1904.2175000000 -0.9307699979 -0.3610588931 0.0574777067
215.0780000000 42.3676000000 1864.1700000000 0.8903744066 -0.4063093266 -0.2052952683
-300.5233668342 155.3724070352 1604.1175376884 -0.3531019171 -0.8369467282 -0.4181377887
-112.9174444444 118.8888518519 2049.3200000000 -0.2667423520 0.8708616286 -0.4128541406
312.3200000000 54.4000000000 2393.6000000000 0.9801714891 0.1197272259 -0.1578899721
383.3488333333 66.3536666667 2809.3900000000 0.9817453886 0.0614881740 -0.1799866563
-158.0950000000 110.6515000000 1902.7050000000 0.0702676408 -0.9966179240 0.0426048379
-200.1586666667 41.4286000000 1780.9500000000 0.8947318843 -0.4425039189 0.0603749690
-214.7244666667 51.2463800000 2168.1200000000 -0.9448603696 0.2700158921 -0.1852843760
115.4400000000 43.7785000000 1949.1900000000 0.9311985367 0.3573803405 -0.0717535883
217.8620000000 42.2642000000 1881.7600000000 0.9067271245 -0.3993307556 -0.1355760646
-302.9403333333 161.4713333333 1650.0000000000 0.2505180417 0.9648061512 -0.0799362333
-111.5661666667 117.4495000000 1940.7633333333 0.0616964328 -0.9975174059 0.0339495970
307.6680000000 53.1225000000 2365.2200000000 0.9747053928 0.1735219756 -0.1408528356
385.9957777778 69.3501111111 2822.6400000000 0.9760324583 0.0945742889 -0.1960008782
-353.7276800000 41.9337520000 1835.5800000000 0.2349767066 -0.6716410922 -0.7026266368
-276.9495000000 40.5131327273 1662.2200000000 -0.5034180204 -0.4644590063 -0.7285932529
-217.3795000000 49.3793000000 2063.4500000000 0.9086951994 -0.4154469129 0.0409499344
-94.1270975000 50.5418150000 2001.3400000000 -0.5133116343 0.2906073569 -0.8075014119
2.6091493421 44.4797447368 1961.9700000000 -0.0883644040 0.2608791471 -0.9613187831
10.3744607237 45.5289078947 1961.9700000000 -0.0201414971 0.2753725464 -0.9611265686
18.9437801653 45.1104272727 1961.9700000000 -0.0096472188 0.2771789665 -0.9607698745
35.8469666667 44.3716083333 1961.9700000000 0.1245193165 0.2800269045 -0.9518822787
132.0925000000 48.5161250000 2140.9700000000 0.8816795597 0.4615669136 -0.0979649846
152.0186666667 42.0326512821 1813.3300000000 -0.0934439786 -0.4845546179 -0.8697557388
159.9479173554 41.5006314050 1813.3300000000 0.0816374081 -0.4838597800 -0.8713294709
-296.2992765957 40.6995872340 1685.3280851064 -0.8368953378 -0.4086006549 -0.3642138087
-211.0970000000 42.3226000000 1930.3200000000 0.8947812836 -0.4402302683 0.0745906525
-216.9880000000 45.1184333333 2033.0700000000 0.8847213865 -0.4633696273 0.0505633945
-220.4820000000 49.0213000000 2121.9900000000 0.8684886658 -0.4442749595 -0.2198799622
-71.7607967391 49.0567679348 1988.0400000000 -0.3879076494 0.2544867520 -0.8858691487
-59.8587172222 48.2001266667 1981.4600000000 -0.4431404617 0.1920848412 -0.8756311695
-52.4370550000 51.9072550000 1981.4600000000 -0.3614008216 0.2542456253 -0.8970778161
-49.5736289720 47.5938433022 1974.9200000000 -0.3314875188 0.2263003660 -0.9159171192
-10.0234511421 47.9211259053 1968.4200000000 -0.1445269874 0.1899138030 -0.9711048848
40.2346029326 48.1092765396 1968.4200000000 0.0886808160 0.2975966277 -0.9505640221
50.0000000000 47.8947368421 1968.4200000000 0.2186975585 0.1753818078 -0.9599023906
60.0000000000 47.8947368421 1968.4200000000 0.1669338139 0.1604399850 -0.9728268669
69.9565815789 47.9658795322 1971.2708771930 0.1826364523 0.1701328009 -0.9683484685
89.5083587097 47.5213448387 1974.9200000000 0.2742291552 0.2109437766 -0.9382436217
-309.8026481149 196.8339443447 1451.1540035907 0.2092920365 -0.6711368647 -0.7111765971
96.5224789474 44.7594157895 1974.9200000000 0.1822462454 0.0981374801 -0.9783431612
107.5777765957 47.2706595745 1981.4600000000 0.3417132284 0.1170244447 -0.9324898653
-24.3260000000 148.9660000000 1875.8600000000 0.9530253625 0.3021259233 -0.0215077863
115.4071666667 47.1794833333 2001.3400000000 0.9175533896 0.3218365132 -0.2334888348
-23.9747666667 151.0830000000 1887.7000000000 -0.7634136971 0.6395055734 -0.0907311888
123.0343750000 48.0000125000 2063.4500000000 0.8990344263 0.4251096434 -0.1049709071
138.6080000000 48.0586000000 2191.9400000000 0.9151615624 0.3808607947 -0.1320014006
125.1700000000 44.6259000000 2035.3700000000 0.9113375919 0.3903663556 -0.1306824468
170.1777600000 169.8251600000 1743.1876000000 -0.0797553718 -0.9965159428 0.0243937774
231.5790000000 43.1579000000 1968.4200000000 0.9120373919 -0.3879057922 -0.1331048162
252.5875000000 46.4335500000 2092.3100000000 0.9038646579 -0.3926785272 -0.1698006317
23.9222714286 183.4325714286 1507.3000000000 0.2000836282 -0.7378191971 -0.6446622171
332.7730000000 55.1261000000 2514.2900000000 0.9760052048 0.1489386716 -0.1588430431
-222.9617680000 40.3022224000 1662.2200000000 0.5082467825 -0.4836432710 -0.7125829036
-216.2960000000 43.9057500000 2014.8100000000 0.8845969968 -0.4627991443 0.0574900450
-223.0215000000 47.4820000000 2152.5200000000 0.8863291158 -0.3855934259 -0.2563950242
-221.3105000000 48.8219833333 2139.6933333333 0.8466189912 -0.4905217459 -0.2064575029
-118.1678938547 47.5277927374 2014.8100000000 -0.6497672702 0.1307617923 -0.7488016081
-96.0000000000 43.2000000000 1994.6700000000 -0.5158876951 0.2056206882 -0.8316129019
111.7121785714 48.8714857143 1989.3028571429 0.8939809962 0.2917440936 -0.3401225695
239.8210000000 46.8903666667 2008.0500000000 0.9067243815 -0.3940150930 -0.1503429493
-128.9400000000 104.7018333333 1740.3766666667 0.0853640056 -0.9950967133 0.0499551562
342.4140000000 58.2759000000 2579.3100000000 0.9811335611 0.1072948683 -0.1608252046
358.5710000000 60.3571000000 2671.4300000000 0.9494921183 0.2583875365 -0.1780466181
190.5990000000 75.2074000000 2757.6000000000 -0.0000000000 -0.0000000000 -1.0000000000
373.8250000000 60.8295000000 2757.6000000000 0.9716264363 0.1084497273 -0.2101921142
-203.7939875000 40.5809750000 1684.9796250000 0.8179061426 -0.4133259700 -0.4002389092
-213.3330000000 41.8301000000 1955.5600000000 0.8984226296 -0.4323967344 0.0766148986
-217.2970000000 43.2432000000 2021.6200000000 0.8779329932 -0.4725567979 0.0769657856
-219.1140000000 48.1119000000 2092.3100000000 0.9022726991 -0.4245923466 0.0750021047
-226.1293333333 47.4725000000 2191.9400000000 0.9028537057 -0.4240418541 0.0710189558
-132.4126994220 48.1802687861 2028.4700000000 -0.6640309826 0.1630125425 -0.7297189631
-127.4126114650 47.8361127389 2021.6200000000 -0.6740610174 0.1496933669 -0.7233489067
-122.7392432432 49.1088391892 2021.6200000000 -0.6799821243 0.1517458580 -0.7173545185
-23.8509000000 149.0680000000 1858.3900000000 -0.7429274738 -0.6692769629 0.0112745568
-194.2860000000 70.8074500000 1858.3900000000 0.9370945921 -0.3405300973 0.0767657362
121.9759000000 49.7105000000 2052.1360000000 0.9048276406 0.4162304853 -0.0896611619
-221.4690000000 152.7680000000 1690.4000000000 0.9790788856 0.1825725285 0.0898432393
135.0540000000 45.8781000000 2144.8000000000 0.9031607180 0.4150011058 -0.1098853936
248.9196666667 46.8965333333 2063.4500000000 0.9011576288 -0.4172174578 -0.1176627425
-127.3987500000 106.1167500000 1763.8925000000 0.0852330373 -0.9954117067 0.0434840612
339.6010000000 59.9430333333 2557.2600000000 0.9782185731 0.1338796784 -0.1586337134
365.2490000000 58.2805500000 2707.6900000000 0.9838277893 0.0009490285 -0.1791144339
-92.7738172414 111.2332068966 2028.4700000000 -0.4773803512 0.3807068742 -0.7919408288
-328.9460000000 40.3834000000 1911.8200000000 0.9305010017 0.3550371591 0.0900916286
-217.3253333333 46.8132333333 2051.6666666667 0.9157626475 -0.3977587566 0.0562738401
-220.1633333333 46.7836333333 2099.6500000000 0.8909789773 -0.4505265262 0.0564119779
-218.9550000000 47.1006800000 2082.1240000000 0.9092537642 -0.4116543131 0.0616305020
-166.0264871795 46.7833769231 2063.4500000000 -0.8056567199 0.1672939509 -0.5682692880
-163.1515280000 48.9533776000 2063.4500000000 -0.7956348053 0.1668213507 -0.5823537529
-158.3212340426 47.7590127660 2056.3600000000 -0.7853716225 0.1840658314 -0.5910255360
-152.4994166667 48.2395755952 2049.6133333333 -0.7450651785 0.2009385507 -0.6360043856
-147.5530066667 47.4502873333 2042.3200000000 -0.7420143032 0.2188608949 -0.6336518622
215.8083333333 40.2079333333 1871.9533333333 0.9011709650 -0.4062667655 -0.1511231519
306.4030000000 49.9605000000 2365.2200000000 0.9680331870 0.1747934615 -0.1798860602
-32.7087280000 122.3945200000 2008.0500000000 -0.4028584090 0.4485765223 -0.7977996026
356.6220000000 58.7851666667 2659.5600000000 -0.9669289947 -0.2297182516 0.1108054337
378.4190000000 58.7907000000 2783.2600000000 0.9864469920 0.0470072217 -0.1572025858
-360.7072035928 40.9027023952 1835.4120359281 0.1876558989 -0.6815258811 -0.7073243506
-342.4579558824 41.5420882353 1841.2300000000 0.3258302037 -0.6539582701 -0.6827688184
-326.8992857143 40.5971428571 1891.1114285714 0.9285744265 0.3504811799 0.1221166532
-327.4586666667 40.0002666667 1901.6966666667 0.9109780973 0.3972124176 0.1110909602
155.5326666667 205.6240000000 1421.9450000000 -0.3731767958 -0.9184010175 0.1314482794
-185.5245000000 45.3146812500 2092.3100000000 -0.8522599055 0.1347676786 -0.5054609048
131.3475000000 46.6194000000 2121.9900000000 0.8993191529 0.4312054061 -0.0727114777
127.7915000000 45.4948250000 2081.4000000000 0.8927370632 0.4395216725 -0.0992030013
369.3150000000 59.9087000000 2732.4200000000 0.9867845181 0.0453144193 -0.1555728715
-325.8703333333 39.2452666667 1881.7600000000 0.9784560429 0.2058511911 -0.0157816124
-324.5280000000 39.7484200000 1881.7600000000 0.9784560429 0.2058511911 -0.0157816124
-208.4346666667 39.5825666667 1873.9066666667 0.9034136809 -0.4233830381 0.0677534076
-228.8240000000 45.2941000000 2200.0000000000 -0.9131539193 0.3853820344 -0.1327802972
-22.7451000000 155.5555000000 1955.5600000000 -0.9667666272 0.2518040172 -0.0442382798
-232.6720000000 47.0229000000 2283.9700000000 0.8930250260 -0.4441779193 0.0721961147
-224.1470000000 48.4457333333 2209.4833333333 0.9580209394 -0.2779050771 0.0704602572
-158.2420000000 127.7660000000 2191.9400000000 0.1716993250 -0.9829174689 0.0662766262
-203.8742400000 49.0057120000 2137.1400000000 -0.8012042309 0.2573575383 -0.5402211379
-50.3615523810 165.7181428571 1581.2785714286 0.0038978053 -0.9970730670 0.0763551318
-192.2374166667 48.1662698718 2109.6188461538 -0.8756851900 0.1808275228 -0.4477464183
-50.1274000000 166.6254166667 1594.1433333333 0.0107941674 -0.9977485792 0.0661910767
-187.4985000000 48.3674618182 2099.6500000000 -0.8533950571 0.1830922642 -0.4880513286
40.8054181818 41.8261515152 1968.4200000000 0.1796501931 0.2327454985 -0.9558008898
39.8591886111 78.1386144444 1974.9200000000 0.1064245850 0.3527765285 -0.9296356967
257.1525333333 47.9937666667 2110.0200000000 0.9328901608 -0.3232473383 -0.1588304323
260.5692500000 49.0391375000 2129.5400000000 0.9229240379 -0.3568737558 -0.1444034024
-128.8818418367 107.1227755102 2055.1387755102 -0.7089576732 0.3320832048 -0.6221734185
376.2960000000 60.1481400000 2770.3700000000 0.9795705445 0.1032474871 -0.1725731867
386.0914285714 60.9164428571 2822.6400000000 0.9711531252 0.0772528947 -0.2255960943
-325.8039166667 39.6657583333 1873.9066666667 0.9937989753 0.0318163748 -0.1065425498
-303.8935384615 38.8698000000 1730.6361538462 -0.8979678182 -0.4135975811 -0.1503024896
-330.9030000000 103.9540000000 1722.8466666667 0.5959735224 0.8008087834 0.0593367763
-207.0705545455 47.6949772727 2142.2930909091 -0.8605258252 0.0987203152 -0.4997495408
-157.6895000000 126.4982500000 2160.2900000000 -0.2479325601 0.9630908574 -0.1048114790
-201.2874615385 48.0106417582 2129.5400000000 -0.8682945699 0.2186417462 -0.4452643334
-158.2290000000 129.0035000000 2208.1200000000 0.1866029900 -0.9801401090 0.0671169937
-197.9833586957 48.0604423913 2121.9900000000 -0.8908855637 0.2029831421 -0.4063505340
131.8150000000 48.5884000000 2129.5400000000 0.8996725509 0.4254428405 -0.0979167536
224.5160000000 39.2258000000 1930.3200000000 0.8892663860 -0.4311621195 -0.1526581847
262.5585333333 47.3672666667 2141.2253333333 0.9360031467 -0.2821478572 -0.2104535485
304.8820000000 47.8740000000 2355.9100000000 0.9749907049 0.1355115233 -0.1761526393
333.8400000000 51.3080000000 2524.8900000000 0.9761017599 0.1445944579 -0.1622276085
318.9163333333 49.8645000000 2432.5200000000 0.9769826090 0.1316219976 -0.1678708773
380.9345000000 58.6916000000 2796.2600000000 0.9882790307 -0.0177020469 -0.1516284769
-324.1547000000 38.8993700000 1872.3440000000 0.9831519273 -0.0552066479 -0.1742541644
-274.0596315789 34.1298894737 1666.8500000000 -0.4796826135 -0.4865518732 -0.7301861852
-269.7301453744 38.3117599119 1660.2442290749 -0.3804354130 -0.4911216036 -0.7836252083
-230.1486752475 38.3441908911 1660.4528712871 0.4115746618 -0.5030222445 -0.7599834994
-226.2445454545 34.0744500000 1666.8500000000 0.4793588459 -0.4813613694 -0.7338299046
-228.9645000000 44.4300500000 2172.0600000000 0.8188709769 -0.5656533560 0.0973991993
-250.6670000000 50.0000000000 2493.3300000000 0.9921674751 0.1242933288 0.0124446697
-218.2427777778 46.8511777778 2160.2900000000 0.9574373575 -0.2885723529 -0.0063010821
130.5265000000 42.3860000000 2099.6500000000 0.8855674150 0.4492281556 -0.1181711372
264.2448750000 45.4676125000 2152.5200000000 0.9607406426 -0.1755567624 -0.2148423629
266.7482307692 47.5867769231 2160.2900000000 0.9644687737 -0.0639950915 -0.2563291103
299.9483333333 48.5788000000 2319.3800000000 0.9799872513 0.1013475918 -0.1713290780
367.2730000000 57.4545500000 2720.0000000000 0.9847280378 0.0255330081 -0.1722171801
89.7037500000 161.3298333333 1692.9891666667 0.0574784645 -0.9979452283 -0.0283116123
388.2465000000 58.1990250000 2836.0200000000 0.9669086822 0.0292962779 -0.2534350576
-294.5986000000 33.9887000000 1690.4000000000 -0.8371437077 -0.4225089152 -0.3473854188
-292.4076900585 37.0975467836 1682.4490058480 -0.7552404671 -0.4227309120 -0.5009095856
-288.0615609756 38.9133276423 1674.4587804878 -0.6950386485 -0.4543604978 -0.5572053618
-280.8294651163 37.3768776163 1668.2728488372 -0.6089946050 -0.4554722458 -0.6493616900
-211.9182375000 39.1513450000 1674.2891875000 0.6882016241 -0.4469730424 -0.5714837040
-207.9323586498 36.8509215190 1682.5365400844 0.7569543836 -0.4198962058 -0.5007067380
-202.0011954023 38.5724471264 1692.8724137931 0.8413674828 -0.4239455449 -0.3352177408
-164.6195333333 111.4742666667 2107.0400000000 -0.7391937163 0.5140089303 -0.4351867064
-200.6175000000 37.2715000000 1753.5575000000 0.8890515346 -0.4540245918 0.0587285191
-211.6295000000 39.3610500000 1911.8200000000 0.8814731995 -0.4702924986 0.0427780815
-201.0025076923 141.9526153846 1611.8049230769 -0.0664805170 -0.9115169246 -0.4058537138
129.2310000000 174.2510000000 2422.6700000000 -0.3506421243 -0.9342782564 0.0646083608
-244.4800000000 47.3600000000 2393.6000000000 -0.9066924993 0.4020900847 -0.1274059476
-21.8182000000 156.8830000000 1942.8600000000 0.7651286840 -0.6438766342 -0.0009883228
-233.5530476190 62.2710428571 1643.9600000000 0.2182564871 -0.3949666616 -0.8923930984
-229.6238750000 47.0676750000 2249.6200000000 -0.9327166915 0.3448889678 -0.1053146397
-226.2614444444 45.6879222222 2212.6644444444 -0.9396310194 0.3068027083 -0.1515442031
-223.2352500000 48.1249937500 2200.0000000000 -0.9418226639 0.3065870044 -0.1377478801
-222.3093703704 47.8415407407 2191.9400000000 -0.9337028639 0.3149659733 -0.1702803503
-220.7300000000 48.0778583333 2183.9400000000 -0.9019321885 0.3996905958 -0.1636024295
121.8202000000 41.3849000000 2031.2300000000 0.9078444558 0.3897733505 -0.1545806564
148.9649911111 96.0234906667 1797.0000000000 -0.1547220962 -0.2486525169 -0.9561553215
128.9920000000 42.1993600000 2082.1240000000 0.8962274984 0.4340174154 -0.0916796280
129.5105000000 41.9580500000 2092.3100000000 0.8836628863 0.4490157211 -0.1323812133
273.5487419355 47.7136806452 2183.9400000000 0.9664247600 -0.1181119285 -0.2281945563
283.4200000000 47.2437714286 2224.5400000000 0.9786946612 0.0413946021 -0.2011050649
338.0430000000 50.3830000000 2546.3800000000 -0.9942563440 -0.0390955198 0.0996286240
-350.3032427984 39.6378600823 1841.2300000000 0.2589767478 -0.6767552877 -0.6891540645
-300.6217692308 37.9508076923 1711.5946153846 0.8987649877 0.4200391704 0.1256526650
-299.1364285714 37.5237761905 1702.5352380952 -0.8977916553 -0.4046452375 -0.1738745971
-199.2376224490 37.9603683673 1702.4446938776 0.8647027561 -0.4566279465 -0.2092368565
-197.1777804878 38.2822024390 1710.4270731707 0.8891153639 -0.4491250158 -0.0880942102
-158.2306829268 107.4944878049 2092.3100000000 -0.8674339681 0.3267075183 -0.3752605874
-199.3968000000 36.3393200000 1733.4880000000 0.8973955855 -0.4387393413 0.0467862528
-249.3720000000 48.8703000000 2503.7700000000 0.9974891696 0.0397222419 0.0586301970
-20.3816000000 161.0770000000 2014.8100000000 0.9513305878 0.3016111490 -0.0632520948
-230.2192000000 45.8868000000 2258.1100000000 -0.9069549577 0.3926185229 -0.1525889911
-227.3110000000 46.6914333333 2224.5400000000 0.9675063597 -0.2408603810 0.0769267232
113.7376000000 39.9744400000 1911.8200000000 0.9467163152 0.3072033562 -0.0967177154
-67.7812719101 85.2853910112 1994.6700000000 -0.3895734399 0.3636265627 -0.8461727116
236.5215000000 40.9364500000 2001.3400000000 0.8937277980 -0.4295696898 -0.1293077902
284.1790000000 48.5970200000 2232.8400000000 0.9769356282 0.0673514524 -0.2026340550
319.6730000000 47.6735000000 2442.4500000000 -0.9877824486 -0.0914036508 0.1262188847
336.2710000000 51.2994333333 2535.5900000000 0.9734321346 0.1377637339 -0.1828962357
371.3760000000 55.7798500000 2744.9500000000 0.9788586565 0.0380192660 -0.2009732967
-199.3662500000 35.1091250000 1722.0200000000 0.8947415165 -0.4445971211 0.0420834710
-206.4196666667 38.8477666667 1846.9100000000 0.8982247238 -0.4350582827 0.0625830344
-219.5290000000 38.7879000000 2014.8100000000 0.8697249273 -0.4873030570 0.0781938706
-220.3410000000 39.3174000000 2042.3200000000 0.8845292755 -0.4636755725 0.0511167708
-245.2460000000 47.2131000000 2452.4600000000 0.9979971715 -0.0447177493 -0.0447433635
238.6168571429 40.7291857143 2011.9128571429 0.8877468171 -0.4376530415 -0.1427074068
332.4370000000 50.4202000000 2514.2900000000 0.9722286174 0.1434320844 -0.1849290477
394.6150000000 55.3846000000 2876.9200000000 -0.9894968047 -0.0697243736 0.1266277427
85.4765666667 162.8120000000 1660.6866666667 0.0963167349 -0.9926162897 -0.0737291530
393.4381428571 55.9945428571 2863.1600000000 -0.9923945932 0.0016906509 0.1230857956
-315.6418000000 38.7372000000 1811.1380000000 -0.8943565583 -0.4145202183 -0.1682240623
-162.0476744186 108.8599922481 2099.6500000000 -0.7653489886 0.4493770753 -0.4607615107
-200.3495000000 35.9183500000 1744.6100000000 0.8948943367 -0.4424518364 0.0583137954
-249.9585000000 48.4647000000 2482.9900000000 -0.9837662724 -0.1469210562 -0.1030442841
-262.9600000000 50.9417000000 2683.4100000000 -0.9174187136 0.3497523237 -0.1897793876
-226.7150000000 45.0542000000 2160.2900000000 -0.8182067672 0.5611563464 -0.1250649468
122.7026666667 39.6396333333 2021.6200000000 0.8920067513 0.4161204867 -0.1765437516
-227.8894285714 46.3112857143 2232.8400000000 0.9628002788 -0.2605935585 0.0714606217
116.1290000000 38.8817333333 1930.3200000000 0.9333719614 0.3452321017 -0.0981406009
132.1413000000 40.6226223077 1824.2192307692 -0.5285287821 -0.4773726651 -0.7019776813
218.8146666667 36.6102666667 1901.6966666667 0.8879927277 -0.4393073483 -0.1359336948
311.0400000000 48.3200000000 2393.6000000000 0.9771887887 0.1059916483 -0.1840321756
316.1290000000 45.8065000000 2412.9000000000 0.9832453286 0.0613376676 -0.1716575496
88.9667233333 162.3055555556 1672.6577777778 0.0903285057 -0.9921411331 -0.0865836770
392.1190625000 59.0000250000 2849.5200000000 0.9768721898 -0.0005606746 -0.2138233158
-309.3428000000 36.8480800000 1771.4620000000 0.9130398926 0.3887466679 0.1234268313
-211.7350000000 35.3312000000 1887.7000000000 0.8838958104 -0.4620464704 0.0723965164
-235.1880000000 42.1053000000 2249.6200000000 -0.9361483661 0.3000926399 -0.1832229356
-250.8020000000 47.9325000000 2524.8900000000 -0.9524628165 0.2310396215 -0.1985831727
-227.3380000000 44.8921000000 2152.5200000000 0.9098918376 -0.3938482433 -0.1303088833
120.5237777778 41.1203222222 2011.8055555556 0.9096411498 0.3978506315 -0.1194481212
-235.0000000000 49.3750000000 2337.5000000000 0.9625207187 -0.2602098212 0.0764507353
119.5012727273 39.5500090909 2001.3400000000 0.8998782067 0.3921327992 -0.1909216619
245.7698333333 39.8390166667 2055.1866666667 0.8982027997 -0.4233883492 -0.1182118280
397.8742500000 54.4927500000 2890.8200000000 0.9764913934 0.1523986317 -0.1524441397
396.3078000000 55.0769200000 2876.9200000000 -0.9894968047 -0.0697243736 0.1266277427
395.4070000000 54.3540666667 2863.1600000000 -0.9923945932 0.0016906509 0.1230857956
-319.6718333333 36.9230500000 1841.2300000000 -0.7658655701 -0.5852093476 -0.2664206224
-314.0705000000 36.3043000000 1810.5900000000 0.8965604141 0.4197385925 0.1414176006
-313.1063333333 37.6744888889 1798.8033333333 0.8995300734 0.4175345464 0.1284933837
-305.6890000000 32.3754000000 1754.8400000000 0.8934948039 0.4346976390 0.1127164497
-213.0790000000 35.0476000000 1899.6800000000 0.8933378639 -0.4467478001 0.0486195839
-203.4755000000 32.5185000000 1762.5950000000 0.8915282908 -0.4487992984 0.0612902644
-208.4475000000 36.7702000000 1858.3900000000 0.9018964499 -0.4252909257 0.0755673357
-256.9276666667 48.2319000000 2601.7400000000 -0.9389732796 0.2870377041 -0.1895746203
-191.5235014493 88.1693240580 1671.9626956522 0.7359687806 -0.6196129803 -0.2728180871
-231.0965059524 49.4581681548 1652.7957142857 0.3375060837 -0.4630868883 -0.8195365626
-233.8460000000 42.4615000000 2301.5400000000 0.9739336818 -0.2229975822 0.0415362707
160.0154154930 36.7704126761 1818.8400000000 0.0348896231 -0.4930071549 -0.8693254048
222.3942500000 36.4988750000 1922.5775000000 0.8868332221 -0.4350607018 -0.1557209745
314.8390000000 44.5161000000 2412.9000000000 -0.9830153670 -0.1527375307 0.1017449505
381.2210000000 51.8310000000 2809.3900000000 0.9762243222 0.1472305459 -0.1590887774
393.8460000000 53.0769000000 2876.9200000000 -0.9894968047 -0.0697243736 0.1266277427
400.0000000000 53.7863750000 2904.8500000000 0.9877302124 0.0514554641 -0.1474495261
-359.8810798319 36.5362655462 1841.2300000000 0.1810498600 -0.6927010898 -0.6981304666
-357.1399583333 34.2592500000 1846.9100000000 0.2385624440 -0.7223241540 -0.6491038260
-317.9861111111 36.7599444444 1833.0866666667 0.8572768556 0.4998996462 0.1231938984
-308.3680000000 32.2849000000 1775.6700000000 0.9072772536 0.4011447291 0.1262176356
-377.3123333333 51.6403470588 1824.3900000000 0.0345748308 -0.5557154575 -0.8306533039
-306.7330000000 32.5025333333 1761.7300000000 0.8941131774 0.4294386981 0.1270591621
-208.4925000000 34.2153500000 1841.2300000000 0.8932871520 -0.4446419559 0.0658148556
-205.2670000000 39.8576600000 2129.5400000000 -0.8463127298 -0.0960650453 -0.5239525460
-190.3226101695 92.2160508475 1659.8810169492 0.5165798889 -0.8125225943 -0.2700967460
119.1384670330 37.9482642857 1841.2300000000 -0.7578993085 -0.4689894413 -0.4534727579
129.0071081871 37.1733587719 1830.7737719298 -0.6108247006 -0.4590221758 -0.6451293105
170.1838103896 37.8475555844 1818.9264935065 0.2401125799 -0.4693767708 -0.8497243059
191.7447019231 37.0483966346 1830.7521634615 0.5984124060 -0.4198824775 -0.6823498351
201.9632815534 37.4584019417 1841.2300000000 0.7172144199 -0.4167539747 -0.5584976280
219.5530000000 34.7604000000 1911.8200000000 0.8861454876 -0.4372188217 -0.1535769410
-365.0460000000 32.9846000000 1841.2300000000 0.1518210334 -0.7049337282 -0.6928338998
-339.6594641026 37.4785079487 1849.0953333333 0.3636753931 -0.7028948140 -0.6112929648
-335.6525000000 33.2919000000 1858.3900000000 0.4626145273 -0.7314069922 -0.5010305488
-323.7817714286 36.8393542857 1860.8671428571 0.9052457959 0.4239823853 -0.0277305979
-321.3498636364 37.8759727273 1849.5100000000 -0.7250069840 -0.6027825456 -0.3331937513
-204.4970000000 31.7160000000 1770.4100000000 0.8897098858 -0.4531406137 0.0554968777
-211.6556000000 39.9505400000 1920.4180000000 0.8822031954 -0.4685271264 0.0469026001
-263.7840000000 49.9700000000 2695.5000000000 0.9791055496 -0.2021657105 -0.0219396493
113.6400714286 41.4238357143 1988.0400000000 0.8969960667 0.2905927075 -0.3330974853
-228.9738000000 46.2621800000 2241.2000000000 0.9719300374 -0.2191809775 0.0855084878
116.4781666667 36.9094833333 1939.7150000000 0.9415473778 0.3292960614 -0.0710819193
112.9947777778 37.4028777778 1901.6966666667 0.9439885275 0.3219902607 -0.0721660032
365.2490000000 48.5068000000 2707.6900000000 0.9773118102 0.1402698827 -0.1587009314
-295.7777272727 31.8431636364 1694.7454545455 -0.8607255639 -0.4324020028 -0.2686633796
-214.1550370370 31.6879259259 1676.1900000000 0.6842565013 -0.4384713965 -0.5826970695
115.1176666667 36.6559666667 1922.0633333333 0.9383920699 0.3310162886 -0.0992398093
112.2501333333 38.3485466667 1890.4860000000 0.9481466988 0.3103540839 -0.0685432725
217.3188571429 36.8395000000 1891.1114285714 0.8839430304 -0.4500350989 -0.1269374998
323.8410000000 44.3347333333 2462.5500000000 0.9198379659 0.3252158814 -0.2193917661
-317.6206666667 32.4923000000 1841.2300000000 -0.8398657782 -0.4931730934 -0.2267284159
-251.2046666667 44.8179333333 2514.2900000000 -0.9712073733 0.1003721054 -0.2160594327
-264.1780000000 46.2222000000 2659.5600000000 0.9212369006 -0.3886627316 0.0162435836
-266.4220000000 47.7064000000 2744.9500000000 0.9907655143 -0.1296728794 0.0396060615
118.1640000000 36.8524750000 1961.9700000000 -0.9418686336 -0.3346310781 0.0300918370
114.6338333333 36.3440166667 1918.9783333333 0.9344478832 0.3386299877 -0.1101675317
223.8960000000 33.7662000000 1942.8600000000 0.8902888570 -0.4316950122 -0.1450005779
403.1370000000 50.9804000000 2933.3300000000 -0.3161873884 -0.9486024797 0.0133742604
396.9230000000 51.5384600000 2876.9200000000 -0.9894968047 -0.0697243736 0.1266277427
-329.6420000000 33.3550000000 1949.1900000000 0.9207737738 0.3773244133 0.0990047709
-160.9870591017 108.7365721040 1652.3931914894 0.4267261109 -0.3799050420 -0.8207173602
-297.0182857143 31.2718714286 1702.0742857143 -0.8875082960 -0.4234122346 -0.1817996261
-214.5220000000 32.6115000000 1905.7300000000 0.9022649927 -0.4289445650 0.0438684753
-209.0800000000 31.4110000000 1835.5800000000 0.9011143727 -0.4296821328 0.0580185499
274.5790000000 52.4542500000 2191.9400000000 0.9731191264 0.1078329145 -0.2034974901
-241.2310000000 39.6923000000 2301.5400000000 0.9872870395 -0.1463295823 -0.0620641203
-214.1517083333 40.5054125000 2160.2900000000 -0.9893298212 0.0112367053 -0.1452592208
-7.5715866667 37.4557426667 1961.9700000000 -0.2116187254 0.1949600698 -0.9577098132
-0.2622952632 38.2950842105 1961.9700000000 -0.1736799711 0.2514107770 -0.9521700945
134.0110625000 -81.2096812500 1901.1925000000 -0.9877141455 0.1381299240 0.0730813996
-361.7250000000 -146.8240000000 2346.6700000000 0.9366294988 -0.3357639447 0.0999387587
-299.5690000000 -113.3946666667 1841.2300000000 0.9799372899 -0.1617273319 0.1164782293
-236.5395000000 -123.5295000000 1991.3550000000 0.9779471385 0.1924098674 0.0812270719
-306.9950000000 -182.0685000000 2947.7800000000 0.9887884554 0.1321704934 0.0694863372
390.7330813953 79.1052104651 2849.5200000000 0.9570134215 0.1223999274 -0.2629516473
-380.0830000000 -278.1740000000 2482.9900000000 0.6564703363 0.0135675791 -0.7542298180
-235.3850000000 -180.0000000000 2876.9200000000 0.8472508381 0.5219573583 0.0986231893
288.5570000000 -0.9950266667 2232.8400000000 0.9795352757 -0.0885749833 -0.1807349330
-222.3010000000 -165.6640000000 2647.7900000000 0.8541587163 0.5162051310 0.0628104297
-247.8570000000 -115.0000000000 2671.4300000000 0.9381364333 0.3349800337 0.0876835756
-305.5480000000 -17.2903500000 1930.3200000000 0.9636404555 0.2355700823 0.1261103043
-205.4400000000 -149.7600000000 2393.6000000000 0.8485628993 0.5197678917 0.0989057362
-190.0674905660 -131.6622830189 2183.9400000000 -0.8184973884 -0.5067269415 -0.2707209485
-364.1952571429 -218.8066000000 1893.6700000000 0.4243418767 -0.2417938629 -0.8726223121
-173.3784336283 48.4594831858 2077.9081415929 -0.8126634539 0.1697778874 -0.5574527600
-187.1695128205 -130.5727820513 2172.8682051282 -0.8181349017 -0.4979151509 -0.2876382888
-324.5180000000 -184.1860000000 1988.0400000000 0.9969184699 0.0134552339 0.0772820878
-71.6364769231 -124.8706703297 2021.6200000000 -0.4328956825 -0.5794908341 -0.6905010509
137.6592500000 -121.2707500000 2001.3400000000 0.9804188842 -0.1740281500 -0.0921575522
195.3895000000 -115.1402857143 1864.1700000000 0.9342453181 0.1550652622 -0.3211548693
-87.0412250000 -240.7492500000 2241.2000000000 -0.4888119830 -0.8626591100 -0.1299311553
-220.2600374332 -102.1183021390 1701.7858823529 0.8943456112 0.1527843907 -0.4204793189
-225.0580000000 -96.4981000000 2328.4000000000 0.9410692939 0.3288901471 0.0788660588
130.7672616279 184.4845290698 1526.9608139535 0.1875282034 -0.8142486044 -0.5493927404
-198.9830000000 147.1190000000 2535.5900000000 0.4751233803 -0.8791389242 -0.0370476113
-271.6050000000 -153.8546666667 2462.5500000000 0.9862042115 0.1223153170 0.1115357180
-191.4008571429 -264.6324285714 2904.8500000000 0.1989451772 0.9798498149 -0.0177526554
-241.8480000000 -183.6303333333 2962.3800000000 -0.8794584062 -0.4639666495 -0.1062443407
129.9200000000 -268.8000000000 2393.6000000000 0.3712440733 -0.9132473138 -0.1678010189
239.0825000000 -282.1102500000 2744.9500000000 -0.3371772528 -0.9385301468 -0.0739774549
255.9200000000 -128.9550000000 2232.8400000000 -0.9296036320 0.3508299304 0.1129400163
-234.4620000000 32.0000000000 2301.5400000000 0.9920353686 -0.0639627587 -0.1085107963
-221.5541823204 79.1727839779 1643.7108287293 0.3735784454 -0.4917323632 -0.7865357132
-266.7760000000 -166.2045000000 2442.4500000000 -0.9764941893 -0.1666049924 -0.1367547978
138.5385454545 -121.9193636364 2013.5809090909 -0.9806448664 -0.1121880061 -0.1604664991
-100.0664458333 -331.9291488095 2783.2600000000 -0.1099573303 0.0525307323 -0.9925471816
140.2451428571 -80.9796714286 1973.9914285714 -0.9900987726 0.1205860236 0.0718570212
191.7312834646 -111.7388346457 1858.8451181102 0.8500408717 0.1725780129 -0.4976417847
139.1290000000 -82.1358428571 1961.9700000000 0.9866021438 -0.1340956619 -0.0929223509
299.6610000000 -159.3220000000 2535.5900000000 0.9768283538 -0.0584264776 -0.2058949099
-365.5470000000 -299.5620000000 2183.9400000000 0.9002418987 -0.4309100358 0.0622981932
145.2560000000 -3.2764550000 2042.3200000000 0.9678386851 0.2408719531 -0.0725877531
-357.2377500000 108.1525000000 1731.3587500000 -0.1467487253 -0.9888192035 0.0264838512
336.0983333333 -243.8096666667 2757.6000000000 0.9727518317 -0.1507916369 -0.1761129074
-206.0180000000 153.6280000000 2647.7900000000 0.2314075844 -0.9676249256 -0.1007597803
-159.9276816609 28.1685750865 2053.5586159169 -0.7785890887 0.1137631958 -0.6171361002
-377.1114623656 57.6729139785 1821.5851612903 0.0709037642 -0.5168470086 -0.8531364639
-311.7737500000 -120.7435000000 1938.1425000000 -0.7730438184 0.5750284973 -0.2678534715
-60.8547000000 -289.2310000000 2557.2600000000 0.3487464712 0.9311035763 0.1068738933
-227.7596838235 -101.6283963235 1691.0677941177 0.6958782275 0.1510648814 -0.7020917989
-223.3795722222 -102.5882922222 1694.9941111111 0.8470015699 0.1659457160 -0.5050251082
-87.7612000000 -238.2090000000 2232.8400000000 -0.4991617880 -0.8591623969 -0.1125943393
-240.0000000000 -184.8275000000 2947.7800000000 -0.8694553245 -0.4820262001 -0.1081581299
-220.6165000000 -165.9915000000 2636.1200000000 0.8508389607 0.5169453671 0.0940242010
-201.1338000000 -141.2412000000 2292.7200000000 0.8534815488 0.5118858764 0.0976836494
-330.4110000000 -311.9632500000 2732.4200000000 -0.3017254539 0.9512459932 0.0639750805
-183.1230727273 -134.4211272727 2169.8392727273 -0.7998021187 -0.5200983742 -0.2996902601
-181.5614375000 -131.6697187500 2160.2900000000 -0.7970550637 -0.5255727793 -0.2974499608
183.2480000000 36.2393000000 2557.2600000000 -0.0000000000 -0.0000000000 -1.0000000000
-33.7449650000 -125.9864500000 2008.0500000000 -0.2352850103 -0.5459450480 -0.8041050730
276.6410000000 33.5878000000 2283.9700000000 0.2310377603 -0.9725845362 -0.0264740120
72.8859000000 -125.8220937500 2008.0500000000 0.2474859760 -0.5300934069 -0.8110189095
90.0572184713 -121.9724681529 2008.5021019108 0.2371745289 -0.5040857418 -0.8304491603
-236.4445000000 110.5780000000 2659.5600000000 0.8819501126 -0.4652500879 0.0755404167
240.2875000000 -131.5105000000 2152.5200000000 0.9832522914 0.0971218793 -0.1542150186
